884,884,883,882,882,883,883,883,883,883,883,883,883,883,883,883,883,883,883,883,884,884,884,884,884,884,885,885,885,885,885,885,884,885,885,885,885,885,885,885,885,885,885,885,885,885,885,885,885,885,885,885,885,885,885,885,885,885,885,885,885,885,885,885,885,885,885,885,885,885,885,885,885,885,885,885,885,885,885,885,885,885,885,885,886,885,885,886,886,886,886,886,886,887,886,887,887,887,887,887,887,2047,2047,2047,2047,2047,2047,2047,2047,2047,2047,2047,2047,2047,2047,2047,2047,2047,2047,2047,702,701,700,699,698,697,695,695,694,694,693,693,691,690,690,689,689,688,688,687,687,686,686,686,686,686,686,686,686,687,686,686,686,685,685,684,683,682,682,682,682,682,682,682,666,665,664,664,664,664,663,663,662,662,661,661,660,657,653,652,650,649,647,646,645,644,644,643,643,643,643,643,642,642,642,642,642,642,642,642,642,642,641,641,641,641,640,640,639,639,638,638,638,637,637,636,635,635,634,634,634,633,633,633,633,633,632,632,631,630,630,630,630,629,629,627,623,625,627,628,628,628,628,629,628,628,628,627,628,628,627,627,627,628,628,628,627,628,628,2047,606,606,606,606,606,606,605,604,604,616,617,617,617,616,616,615,614,613,612,610,610,610,610,610,611,611,613,614,613,612,612,613,613,613,614,614,620,620,621,622,622,625,625,626,627,627,627,627,626,625,624,623,622,622,622,622,622,621,620,618,618,617,617,617,618,619,624,625,626,626,626,625,625,627,627,628,628,627,626,625,622,621,621,621,621,621,622,627,627,627,626,626,626,625,625,625,625,625,624,624,622,623,622,622,622,624,625,625,625,624,624,623,622,622,622,621,622,621,621,621,622,623,621,622,622,624,626,628,632,633,633,633,633,634,634,633,632,631,630,630,630,629,629,629,648,647,649,649,636,636,635,635,635,635,635,636,637,637,656,656,656,656,656,656,656,656,656,656,657,661,663,664,665,665,667,669,671,671,672,673,674,675,675,676,676,676,676,677,677,677,677,677,677,678,678,677,720,721,721,722,723,723,724,724,725,725,726,727,727,728,728,728,728,729,729,730,730,731,732,733,892,892,892,892,892,892,892,892,892,892,892,892,892,892,892,891,891,891,891,892,892,892,892,892,892,892,892,892,892,892,892,892,892,892,893,892,892,892,893,893,893,893,893,893,892,892,892,892,892,892,893,893,893,893,893,893,893,892,892,892,892,892,892,892,892,892,892,892,892,892,892,892,892,892,892,892,892,892,892,892,892,892,892,893,892,892,893,893,893,893,892,892,893,893,893,893,892,892,892,892,892,892,892,892,892,892,892,892,892,892,893,893,893,892,892,892,892,892,892,892,892,892,892,892,892,891,890,890,890,890,890,890,891,890,890,890,891,891,891,890,889,890,891,891,890,890,890,890,890,2047,2047,2047,2047,2047,2047,2047,2047,0,0,0,0,0,0,0,0,0,0,0,0,0,0,0,0,0,0,0,0,0,0,0,0,0,0,0,0,0,0,0,0,0,0,0,0,0,0,0,0,0,0,0,0,0,0,0,0,0,0,0,0,0,0,0,0,0,0,0,0,0,0,0,0,0,0,0,0,0,0,0,0,0,0,0,0,0,0,0,0,0,0,0,0,0,0,0,0,0,0,0,0,0,0,0,0,0,0,0,0,0,0,0,0,0,0,0,0,0,0,0,0,0,0,0,0,0,0,0,0,0,0,0,0,0,0,0,0,0,0,0,0,0,0,0,0,0,0,0,0,0,0,0,0,0,0,0,0,0,0,0,0,0,0,0,0,0,0,0,0,0,0,0,0,0,0,0,0,0,0,0,0,0,0,0,0,0,0,0,0,0,0,0,0,0,0,0,0,0,0,0,0,0,0,0,0,0,0,0,0,0,0,0,0,0,0,0,0,0,0,0,0,0,0,0,0,0,0,0,0,0,0,0,0,0,0,0,0,0,0,0,0,0,0,0,0,0,0,0,0,0,0,0,0,0,0,0,0,0,0,0,0,0,0,0,0,0,0,0,0,0,0,0,0,0,0,0,0,0,0,0,0,0,0,0,0,0,0,0,0,0,0,0,0,0,0,0,0,0,0,0,0,0,0,0,0,0,0,0,0,0,0,0,0,0,0,0,0,0,0,0,0,0,0,0,0,0,0,0,0,0,0,0,0,0,0,0,0,0,0,0,0,0,0,0,0,0,0,0,0,0,0,0,0,0,0,0,0,0,0,0,0,0,0,0,0,0,0,0,0,0,0,0,0,0,0,0,0,0,0,0,0,0,0,0,0,0,0,0,0,0,0,0,0,0,0,0,0,0,0,0,0,0,0,0,0,0,0,0,0,0,0,0,0,0,0,0,0,0,0,0,0,0,0,0,0,0,0,0,0,0,0,0,0,0,0,0,0,0,0,0,0,0,0,0,0,0,0,0,0,0,0,0,0,0,0,0,0,0,0,0,0,0,0,0,0,0,0,0,0,0,0,0,0,0,0,0,0,0,0,0,0,0,0,0,0,0,0,0,0,0,0,0,0,0,0,0,0,0,0,0,0,0,0,0,0,0,0,0,0,0,0,0,0,0,0,0,0,0,0,0,0,0,0,0,0,0,0,0,0,0,0,0,0,0,0,0,0,0,0,0,0,0,0,0,0,0,0,0,0,0,0,0,0,0,0,0,0,0,0
884,884,883,883,883,883,883,882,883,883,883,884,884,883,883,884,884,884,883,883,883,884,883,883,884,884,884,885,885,885,885,885,884,884,884,884,885,885,885,885,885,885,885,885,885,885,885,886,885,885,885,886,885,885,885,885,885,885,885,885,885,885,885,885,885,885,885,885,885,885,885,885,885,885,885,885,885,885,885,885,885,885,885,885,886,885,885,886,886,886,886,886,886,887,887,887,887,887,887,888,888,887,2047,2047,2047,2047,2047,2047,2047,2047,2047,2047,2047,2047,2047,2047,2047,2047,2047,2047,703,702,701,700,700,697,696,695,694,694,694,693,692,691,690,689,689,689,688,687,687,687,686,686,686,686,686,687,687,687,687,687,687,686,686,685,684,683,683,683,683,682,682,682,667,666,665,665,665,665,664,664,663,662,662,661,660,659,659,650,650,649,647,646,645,645,644,643,643,643,643,643,642,642,642,642,642,642,642,642,642,642,641,641,641,641,641,640,640,639,639,638,638,637,637,636,635,635,634,634,634,634,633,633,633,633,632,632,631,630,630,630,630,630,629,628,628,624,626,628,626,624,627,628,628,628,628,627,628,628,628,628,628,628,628,628,628,628,628,608,606,606,606,606,606,605,604,604,602,616,617,617,616,616,615,614,614,613,612,611,610,610,610,610,611,611,612,614,613,613,613,613,613,614,615,614,619,619,619,622,623,623,625,625,626,626,626,626,626,625,625,624,623,623,623,622,622,622,621,618,618,617,617,617,620,620,625,625,626,626,626,625,625,627,627,627,628,627,626,625,623,622,621,621,621,621,621,627,626,626,626,625,625,625,625,625,625,625,625,625,623,624,622,623,622,623,625,625,625,624,624,623,622,622,621,621,621,621,621,621,621,622,622,622,622,624,625,626,627,633,633,633,633,634,634,633,632,631,631,630,630,629,629,629,648,648,649,651,636,636,635,635,635,635,635,636,637,637,657,656,656,656,656,656,656,656,656,656,657,658,663,664,665,665,668,670,671,672,673,673,674,675,676,676,677,677,677,677,677,678,678,678,678,678,678,677,720,721,722,722,723,724,724,725,725,726,726,727,728,728,728,729,729,729,730,730,731,732,733,733,892,892,892,892,892,892,892,892,892,892,892,892,892,892,892,892,891,892,892,892,892,892,892,892,892,892,892,892,892,892,892,892,892,892,893,892,892,892,892,893,893,893,892,892,892,892,892,892,892,893,893,893,893,893,893,893,893,892,892,892,892,892,892,892,892,892,892,892,892,892,892,892,892,892,892,892,892,892,892,892,892,892,892,893,893,892,893,893,893,893,893,892,893,893,893,892,892,892,892,892,892,892,892,892,892,892,892,892,892,893,893,893,893,892,892,892,892,892,892,892,892,892,892,892,892,891,891,890,890,890,890,890,890,889,889,889,891,889,889,889,889,890,890,890,890,890,890,890,890,2047,2047,2047,2047,2047,2047,2047,2047,0,0,0,0,0,0,0,0,0,0,0,0,0,0,0,0,0,0,0,0,0,0,0,0,0,0,0,0,0,0,0,0,0,0,0,0,0,0,0,0,0,0,0,0,0,0,0,0,0,0,0,0,0,0,0,0,0,0,0,0,0,0,0,0,0,0,0,0,0,0,0,0,0,0,0,0,0,0,0,0,0,0,0,0,0,0,0,0,0,0,0,0,0,0,0,0,0,0,0,0,0,0,0,0,0,0,0,0,0,0,0,0,0,0,0,0,0,0,0,0,0,0,0,0,0,0,0,0,0,0,0,0,0,0,0,0,0,0,0,0,0,0,0,0,0,0,0,0,0,0,0,0,0,0,0,0,0,0,0,0,0,0,0,0,0,0,0,0,0,0,0,0,0,0,0,0,0,0,0,0,0,0,0,0,0,0,0,0,0,0,0,0,0,0,0,0,0,0,0,0,0,0,0,0,0,0,0,0,0,0,0,0,0,0,0,0,0,0,0,0,0,0,0,0,0,0,0,0,0,0,0,0,0,0,0,0,0,0,0,0,0,0,0,0,0,0,0,0,0,0,0,0,0,0,0,0,0,0,0,0,0,0,0,0,0,0,0,0,0,0,0,0,0,0,0,0,0,0,0,0,0,0,0,0,0,0,0,0,0,0,0,0,0,0,0,0,0,0,0,0,0,0,0,0,0,0,0,0,0,0,0,0,0,0,0,0,0,0,0,0,0,0,0,0,0,0,0,0,0,0,0,0,0,0,0,0,0,0,0,0,0,0,0,0,0,0,0,0,0,0,0,0,0,0,0,0,0,0,0,0,0,0,0,0,0,0,0,0,0,0,0,0,0,0,0,0,0,0,0,0,0,0,0,0,0,0,0,0,0,0,0,0,0,0,0,0,0,0,0,0,0,0,0,0,0,0,0,0,0,0,0,0,0,0,0,0,0,0,0,0,0,0,0,0,0,0,0,0,0,0,0,0,0,0,0,0,0,0,0,0,0,0,0,0,0,0,0,0,0,0,0,0,0,0,0,0,0,0,0,0,0,0,0,0,0,0,0,0,0,0,0,0,0,0,0,0,0,0,0,0,0,0,0,0,0,0,0,0,0,0,0,0,0,0,0,0,0,0,0,0,0,0,0,0,0,0,0,0,0,0,0,0,0,0,0,0,0,0,0,0,0,0,0,0,0,0,0,0,0,0,0,0,0,0,0,0,0,0,0,0,0,0,0,0,0,0,0,0,0,0
884,884,883,883,883,883,883,883,883,883,884,884,884,884,884,884,884,884,884,884,884,884,883,883,884,884,884,885,885,885,885,885,884,885,884,884,885,885,885,885,885,885,885,885,885,885,885,886,886,885,885,886,885,885,885,885,885,885,885,885,885,885,885,885,885,885,885,885,885,885,885,885,885,885,885,885,885,885,885,885,885,885,885,885,886,885,885,885,885,885,886,886,886,886,887,887,887,887,887,887,887,886,2047,2047,2047,2047,2047,2047,2047,2047,2047,2047,2047,2047,2047,2047,2047,2047,2047,2047,702,702,701,700,700,697,695,695,694,694,694,693,692,691,691,690,689,689,689,688,688,687,687,687,686,687,686,687,687,687,687,688,687,687,687,687,686,686,686,685,686,685,685,667,667,667,666,666,666,666,665,665,664,663,662,662,661,660,660,651,651,649,647,646,646,645,645,644,644,643,643,643,642,642,642,642,642,642,642,642,642,642,642,642,641,641,641,640,640,639,639,638,638,637,637,636,636,635,634,634,634,634,633,633,633,633,632,632,631,630,630,630,630,629,629,628,627,626,625,627,623,623,622,628,628,628,628,628,628,628,628,628,628,628,628,628,628,628,628,608,608,607,606,606,606,604,603,602,600,616,616,617,615,615,615,614,614,614,613,611,611,611,610,610,611,611,612,613,613,612,612,613,613,614,615,615,620,621,622,623,624,624,625,625,626,626,626,626,625,625,624,623,623,623,623,623,623,622,621,618,618,617,617,617,617,620,625,625,626,625,625,625,625,627,627,627,627,627,627,626,624,622,624,621,621,622,622,624,624,625,624,625,625,625,625,625,625,625,625,625,624,624,623,623,622,624,624,625,625,624,624,623,622,622,622,621,621,621,621,621,621,622,622,622,622,624,625,625,625,632,634,633,634,634,634,633,632,631,630,630,630,629,629,630,648,648,649,651,636,636,635,635,635,635,635,635,636,636,636,657,657,656,657,656,656,656,656,656,657,658,664,665,665,665,667,671,672,672,673,673,674,676,677,677,677,677,677,677,678,678,678,678,678,678,678,678,721,722,722,723,724,724,725,725,726,727,727,728,728,729,729,729,729,730,730,731,731,732,733,733,892,892,892,892,892,892,892,892,892,892,892,892,892,892,892,892,892,892,892,892,892,892,892,892,892,892,892,892,892,892,892,892,892,892,893,893,893,892,893,892,893,892,892,892,892,892,892,892,892,892,893,893,893,893,893,893,893,893,892,892,892,892,892,892,892,892,892,892,892,892,892,892,892,892,892,892,892,892,892,892,892,892,892,893,893,892,893,893,893,893,892,892,892,892,892,892,892,892,892,892,892,892,892,892,892,892,892,892,892,893,893,893,892,892,892,892,892,892,892,892,892,892,892,892,892,891,891,890,890,890,890,890,890,889,889,889,890,889,889,889,889,890,890,890,890,889,890,890,889,2047,2047,2047,2047,2047,2047,2047,2047,0,0,0,0,0,0,0,0,0,0,0,0,0,0,0,0,0,0,0,0,0,0,0,0,0,0,0,0,0,0,0,0,0,0,0,0,0,0,0,0,0,0,0,0,0,0,0,0,0,0,0,0,0,0,0,0,0,0,0,0,0,0,0,0,0,0,0,0,0,0,0,0,0,0,0,0,0,0,0,0,0,0,0,0,0,0,0,0,0,0,0,0,0,0,0,0,0,0,0,0,0,0,0,0,0,0,0,0,0,0,0,0,0,0,0,0,0,0,0,0,0,0,0,0,0,0,0,0,0,0,0,0,0,0,0,0,0,0,0,0,0,0,0,0,0,0,0,0,0,0,0,0,0,0,0,0,0,0,0,0,0,0,0,0,0,0,0,0,0,0,0,0,0,0,0,0,0,0,0,0,0,0,0,0,0,0,0,0,0,0,0,0,0,0,0,0,0,0,0,0,0,0,0,0,0,0,0,0,0,0,0,0,0,0,0,0,0,0,0,0,0,0,0,0,0,0,0,0,0,0,0,0,0,0,0,0,0,0,0,0,0,0,0,0,0,0,0,0,0,0,0,0,0,0,0,0,0,0,0,0,0,0,0,0,0,0,0,0,0,0,0,0,0,0,0,0,0,0,0,0,0,0,0,0,0,0,0,0,0,0,0,0,0,0,0,0,0,0,0,0,0,0,0,0,0,0,0,0,0,0,0,0,0,0,0,0,0,0,0,0,0,0,0,0,0,0,0,0,0,0,0,0,0,0,0,0,0,0,0,0,0,0,0,0,0,0,0,0,0,0,0,0,0,0,0,0,0,0,0,0,0,0,0,0,0,0,0,0,0,0,0,0,0,0,0,0,0,0,0,0,0,0,0,0,0,0,0,0,0,0,0,0,0,0,0,0,0,0,0,0,0,0,0,0,0,0,0,0,0,0,0,0,0,0,0,0,0,0,0,0,0,0,0,0,0,0,0,0,0,0,0,0,0,0,0,0,0,0,0,0,0,0,0,0,0,0,0,0,0,0,0,0,0,0,0,0,0,0,0,0,0,0,0,0,0,0,0,0,0,0,0,0,0,0,0,0,0,0,0,0,0,0,0,0,0,0,0,0,0,0,0,0,0,0,0,0,0,0,0,0,0,0,0,0,0,0,0,0,0,0,0,0,0,0,0,0,0,0,0,0,0,0,0,0,0,0,0,0,0,0,0,0,0,0,0,0,0,0,0,0,0,0,0,0,0,0,0,0,0,0
884,884,883,883,883,883,883,883,883,883,884,884,884,884,884,884,884,884,884,883,883,883,883,883,883,884,884,885,885,885,885,885,884,885,884,884,884,884,885,885,885,885,885,885,885,885,885,885,885,885,885,885,885,885,885,885,885,885,885,885,885,885,885,885,885,885,885,885,885,885,885,885,885,885,885,885,885,885,885,885,885,885,885,885,885,885,885,885,885,885,885,886,886,886,886,887,887,887,887,886,887,886,2047,2047,2047,2047,2047,2047,2047,2047,2047,2047,2047,2047,2047,2047,2047,2047,2047,2047,2047,702,701,700,700,697,696,695,695,694,694,693,692,691,691,690,689,689,689,688,687,687,687,687,686,687,687,687,687,688,688,688,688,688,688,688,688,687,687,687,687,686,686,669,668,668,668,667,667,667,666,666,665,664,663,662,661,661,661,661,649,649,647,646,646,645,645,644,643,643,643,643,642,642,642,642,642,642,642,642,642,642,642,642,642,641,641,640,640,639,639,638,638,638,637,637,636,635,635,635,634,634,634,633,633,633,632,632,630,630,630,630,630,629,629,628,628,626,625,626,623,622,622,625,627,628,628,628,629,629,629,629,629,628,628,628,628,628,628,607,606,606,606,606,605,603,602,601,599,616,617,617,616,615,615,615,614,614,613,612,611,611,611,610,611,611,611,613,612,611,612,613,613,613,615,615,619,620,623,622,624,624,625,625,626,625,625,625,625,625,624,623,623,623,623,623,624,623,622,619,618,617,617,618,618,620,625,625,625,625,625,625,625,627,627,627,627,627,626,625,626,624,624,623,622,622,622,624,624,625,624,625,625,625,626,625,626,626,626,625,625,624,623,623,622,624,624,624,624,624,624,623,622,621,621,621,621,621,621,621,621,622,622,623,622,624,625,625,626,632,633,633,633,634,633,633,632,631,631,630,630,629,629,630,629,649,649,651,636,636,635,635,634,634,634,634,636,636,635,657,657,656,657,656,656,656,656,657,657,659,664,664,665,665,670,671,672,672,673,674,675,676,677,677,677,677,677,677,678,679,679,679,679,679,679,678,678,723,723,723,724,725,725,726,727,728,728,728,729,729,729,729,730,730,731,731,732,732,733,733,892,892,892,892,892,892,892,892,892,892,892,892,892,892,892,892,892,892,892,892,892,892,892,892,892,892,892,892,892,892,892,892,892,892,893,893,893,892,892,892,892,892,892,892,892,892,892,892,892,892,893,893,893,893,893,893,893,892,892,892,892,892,892,892,892,892,892,892,892,892,892,892,892,892,892,892,892,892,892,892,892,892,892,893,893,893,893,893,893,893,893,892,893,892,892,892,892,892,892,892,892,892,892,892,892,892,892,893,893,893,893,893,892,892,892,892,892,892,892,892,892,892,892,892,892,892,890,890,890,890,890,890,890,889,889,889,889,889,889,889,889,890,890,890,890,890,890,890,889,2047,2047,2047,2047,2047,2047,2047,2047,0,0,0,0,0,0,0,0,0,0,0,0,0,0,0,0,0,0,0,0,0,0,0,0,0,0,0,0,0,0,0,0,0,0,0,0,0,0,0,0,0,0,0,0,0,0,0,0,0,0,0,0,0,0,0,0,0,0,0,0,0,0,0,0,0,0,0,0,0,0,0,0,0,0,0,0,0,0,0,0,0,0,0,0,0,0,0,0,0,0,0,0,0,0,0,0,0,0,0,0,0,0,0,0,0,0,0,0,0,0,0,0,0,0,0,0,0,0,0,0,0,0,0,0,0,0,0,0,0,0,0,0,0,0,0,0,0,0,0,0,0,0,0,0,0,0,0,0,0,0,0,0,0,0,0,0,0,0,0,0,0,0,0,0,0,0,0,0,0,0,0,0,0,0,0,0,0,0,0,0,0,0,0,0,0,0,0,0,0,0,0,0,0,0,0,0,0,0,0,0,0,0,0,0,0,0,0,0,0,0,0,0,0,0,0,0,0,0,0,0,0,0,0,0,0,0,0,0,0,0,0,0,0,0,0,0,0,0,0,0,0,0,0,0,0,0,0,0,0,0,0,0,0,0,0,0,0,0,0,0,0,0,0,0,0,0,0,0,0,0,0,0,0,0,0,0,0,0,0,0,0,0,0,0,0,0,0,0,0,0,0,0,0,0,0,0,0,0,0,0,0,0,0,0,0,0,0,0,0,0,0,0,0,0,0,0,0,0,0,0,0,0,0,0,0,0,0,0,0,0,0,0,0,0,0,0,0,0,0,0,0,0,0,0,0,0,0,0,0,0,0,0,0,0,0,0,0,0,0,0,0,0,0,0,0,0,0,0,0,0,0,0,0,0,0,0,0,0,0,0,0,0,0,0,0,0,0,0,0,0,0,0,0,0,0,0,0,0,0,0,0,0,0,0,0,0,0,0,0,0,0,0,0,0,0,0,0,0,0,0,0,0,0,0,0,0,0,0,0,0,0,0,0,0,0,0,0,0,0,0,0,0,0,0,0,0,0,0,0,0,0,0,0,0,0,0,0,0,0,0,0,0,0,0,0,0,0,0,0,0,0,0,0,0,0,0,0,0,0,0,0,0,0,0,0,0,0,0,0,0,0,0,0,0,0,0,0,0,0,0,0,0,0,0,0,0,0,0,0,0,0,0,0,0,0,0,0,0,0,0,0,0,0,0,0,0,0,0,0,0,0,0,0,0,0,0,0,0,0,0,0,0,0,0,0,0,0,0,0,0
884,884,883,883,883,883,884,883,884,884,884,884,884,884,884,884,884,884,884,883,883,883,883,883,884,884,884,885,885,885,885,885,884,885,884,884,884,884,885,885,885,885,885,885,885,885,885,885,885,885,885,885,885,885,885,885,885,885,885,885,885,885,885,885,885,885,885,885,885,885,885,885,885,885,885,885,885,885,885,885,886,885,885,885,885,886,885,885,885,885,885,886,886,886,886,886,886,886,887,886,886,885,2047,2047,2047,2047,2047,2047,2047,2047,2047,2047,2047,2047,2047,2047,2047,2047,2047,2047,2047,2047,701,700,700,698,697,696,695,695,694,693,692,691,691,690,690,689,689,688,687,687,687,687,687,687,687,687,687,688,688,689,688,689,689,689,689,688,688,688,688,688,688,669,669,669,669,668,668,668,667,666,666,665,664,663,662,662,662,2047,648,648,647,646,646,645,645,644,644,644,643,643,643,643,643,643,643,643,643,643,643,643,642,642,642,642,641,641,640,640,639,638,638,638,637,637,636,636,635,635,634,634,634,633,633,633,633,632,631,630,630,630,630,630,629,629,628,626,626,627,624,622,622,626,627,628,628,629,629,629,629,629,629,628,628,628,628,629,629,607,607,606,606,606,605,603,602,600,598,617,617,617,616,615,615,615,614,614,613,611,611,611,610,610,611,611,612,613,612,611,612,612,612,613,616,617,619,621,624,624,624,625,625,625,626,625,625,625,625,624,624,623,623,622,623,623,623,623,621,620,618,617,617,618,620,621,625,625,625,625,625,625,625,627,627,627,627,627,626,625,624,623,622,621,621,621,621,622,623,624,624,625,625,625,625,626,626,627,627,626,625,625,624,625,623,624,624,625,625,624,624,623,622,621,621,621,621,621,621,621,621,622,622,623,622,624,624,625,625,625,633,633,635,635,634,633,633,631,631,630,630,629,629,629,629,649,649,650,636,636,636,635,634,634,634,634,633,634,656,656,657,656,656,656,655,656,656,656,657,660,664,665,665,666,669,671,672,672,673,674,676,677,677,678,678,678,678,679,679,679,679,679,679,679,679,678,678,724,724,725,725,725,726,727,728,728,728,729,729,729,729,730,730,731,731,732,732,733,733,733,892,892,892,892,892,892,892,892,892,892,892,892,892,892,892,892,892,892,892,892,892,892,892,892,892,892,892,892,892,892,892,892,892,892,893,892,892,892,892,892,892,892,892,892,892,892,892,892,892,892,893,893,893,893,893,893,893,892,892,892,892,892,892,892,892,892,892,892,893,892,892,892,893,893,893,893,892,893,892,892,892,892,893,893,893,893,893,893,893,893,893,893,893,892,892,892,892,892,892,892,892,892,892,892,892,892,892,893,893,893,893,893,893,893,892,892,892,892,892,892,892,892,892,892,892,892,890,890,890,890,889,889,889,889,889,889,889,889,889,890,889,890,890,891,890,889,889,890,890,2047,2047,2047,2047,2047,2047,2047,2047,0,0,0,0,0,0,0,0,0,0,0,0,0,0,0,0,0,0,0,0,0,0,0,0,0,0,0,0,0,0,0,0,0,0,0,0,0,0,0,0,0,0,0,0,0,0,0,0,0,0,0,0,0,0,0,0,0,0,0,0,0,0,0,0,0,0,0,0,0,0,0,0,0,0,0,0,0,0,0,0,0,0,0,0,0,0,0,0,0,0,0,0,0,0,0,0,0,0,0,0,0,0,0,0,0,0,0,0,0,0,0,0,0,0,0,0,0,0,0,0,0,0,0,0,0,0,0,0,0,0,0,0,0,0,0,0,0,0,0,0,0,0,0,0,0,0,0,0,0,0,0,0,0,0,0,0,0,0,0,0,0,0,0,0,0,0,0,0,0,0,0,0,0,0,0,0,0,0,0,0,0,0,0,0,0,0,0,0,0,0,0,0,0,0,0,0,0,0,0,0,0,0,0,0,0,0,0,0,0,0,0,0,0,0,0,0,0,0,0,0,0,0,0,0,0,0,0,0,0,0,0,0,0,0,0,0,0,0,0,0,0,0,0,0,0,0,0,0,0,0,0,0,0,0,0,0,0,0,0,0,0,0,0,0,0,0,0,0,0,0,0,0,0,0,0,0,0,0,0,0,0,0,0,0,0,0,0,0,0,0,0,0,0,0,0,0,0,0,0,0,0,0,0,0,0,0,0,0,0,0,0,0,0,0,0,0,0,0,0,0,0,0,0,0,0,0,0,0,0,0,0,0,0,0,0,0,0,0,0,0,0,0,0,0,0,0,0,0,0,0,0,0,0,0,0,0,0,0,0,0,0,0,0,0,0,0,0,0,0,0,0,0,0,0,0,0,0,0,0,0,0,0,0,0,0,0,0,0,0,0,0,0,0,0,0,0,0,0,0,0,0,0,0,0,0,0,0,0,0,0,0,0,0,0,0,0,0,0,0,0,0,0,0,0,0,0,0,0,0,0,0,0,0,0,0,0,0,0,0,0,0,0,0,0,0,0,0,0,0,0,0,0,0,0,0,0,0,0,0,0,0,0,0,0,0,0,0,0,0,0,0,0,0,0,0,0,0,0,0,0,0,0,0,0,0,0,0,0,0,0,0,0,0,0,0,0,0,0,0,0,0,0,0,0,0,0,0,0,0,0,0,0,0,0,0,0,0,0,0,0,0,0,0,0,0,0,0,0,0,0,0,0,0,0,0,0,0,0,0,0,0,0,0,0,0,0,0,0,0,0
884,884,883,884,883,883,883,883,884,883,884,884,884,884,884,884,884,883,884,883,883,883,883,883,883,884,884,885,885,885,885,885,885,884,884,883,884,884,884,884,885,885,885,885,885,885,885,885,885,885,885,885,885,885,885,885,885,885,885,885,884,885,885,885,885,885,885,885,885,885,885,885,885,885,885,885,885,885,885,885,886,885,885,885,885,886,885,885,885,885,885,885,886,886,886,886,886,886,886,886,886,886,2047,2047,2047,2047,2047,2047,2047,2047,2047,2047,2047,2047,2047,2047,2047,2047,2047,2047,2047,2047,701,700,699,698,697,697,696,695,694,694,693,692,692,691,690,689,689,688,688,688,687,687,687,688,687,688,688,689,689,689,689,689,689,689,689,689,689,688,688,688,688,669,669,669,669,669,668,668,667,667,667,666,666,665,664,664,2047,2047,648,648,647,646,646,645,645,644,644,644,644,644,643,643,643,644,644,643,643,644,643,643,643,643,642,642,642,641,641,640,640,639,638,638,637,637,636,636,635,635,634,634,634,633,633,633,632,631,630,630,630,630,630,629,629,629,628,627,626,627,625,623,623,625,627,628,628,628,629,629,629,629,629,629,629,629,629,629,605,604,608,606,606,606,605,603,602,600,599,598,596,617,616,615,615,614,614,614,613,612,611,610,610,609,610,610,611,612,611,611,612,611,611,612,617,618,619,619,623,623,623,623,625,625,626,625,625,625,625,625,624,623,623,623,624,623,623,623,621,619,619,617,617,618,620,620,624,625,625,625,625,625,626,626,626,626,627,626,625,625,624,622,622,621,621,621,621,622,623,624,624,624,625,625,625,626,627,628,628,627,626,626,625,626,623,624,624,624,624,624,624,623,622,621,621,621,621,621,621,621,621,622,622,623,623,624,624,625,625,625,633,633,636,636,635,634,633,632,630,629,629,629,629,629,629,648,649,649,636,637,636,635,634,634,634,634,633,635,656,656,656,656,656,656,655,656,656,656,656,656,664,665,665,666,669,671,672,673,673,675,676,677,677,678,679,679,679,679,680,680,680,680,680,680,679,679,678,678,725,726,726,726,727,728,728,728,728,729,729,730,730,731,731,731,731,732,733,733,733,733,891,891,892,892,892,892,892,892,892,892,892,892,892,892,892,892,892,892,892,892,892,892,892,892,892,892,892,892,892,892,892,892,892,892,892,892,892,892,892,892,892,892,892,892,892,892,892,892,892,892,892,893,893,893,893,893,893,892,892,892,892,892,892,892,892,893,892,892,893,892,893,892,893,893,893,893,893,893,892,893,892,892,893,893,893,893,893,893,893,893,893,893,893,892,892,892,892,892,892,892,892,892,892,892,892,892,893,893,892,893,893,893,893,893,892,892,892,892,892,892,892,892,892,892,892,892,890,890,890,890,889,889,890,889,889,889,889,889,889,890,890,889,889,889,889,889,889,889,889,2047,2047,2047,2047,2047,2047,2047,2047,0,0,0,0,0,0,0,0,0,0,0,0,0,0,0,0,0,0,0,0,0,0,0,0,0,0,0,0,0,0,0,0,0,0,0,0,0,0,0,0,0,0,0,0,0,0,0,0,0,0,0,0,0,0,0,0,0,0,0,0,0,0,0,0,0,0,0,0,0,0,0,0,0,0,0,0,0,0,0,0,0,0,0,0,0,0,0,0,0,0,0,0,0,0,0,0,0,0,0,0,0,0,0,0,0,0,0,0,0,0,0,0,0,0,0,0,0,0,0,0,0,0,0,0,0,0,0,0,0,0,0,0,0,0,0,0,0,0,0,0,0,0,0,0,0,0,0,0,0,0,0,0,0,0,0,0,0,0,0,0,0,0,0,0,0,0,0,0,0,0,0,0,0,0,0,0,0,0,0,0,0,0,0,0,0,0,0,0,0,0,0,0,0,0,0,0,0,0,0,0,0,0,0,0,0,0,0,0,0,0,0,0,0,0,0,0,0,0,0,0,0,0,0,0,0,0,0,0,0,0,0,0,0,0,0,0,0,0,0,0,0,0,0,0,0,0,0,0,0,0,0,0,0,0,0,0,0,0,0,0,0,0,0,0,0,0,0,0,0,0,0,0,0,0,0,0,0,0,0,0,0,0,0,0,0,0,0,0,0,0,0,0,0,0,0,0,0,0,0,0,0,0,0,0,0,0,0,0,0,0,0,0,0,0,0,0,0,0,0,0,0,0,0,0,0,0,0,0,0,0,0,0,0,0,0,0,0,0,0,0,0,0,0,0,0,0,0,0,0,0,0,0,0,0,0,0,0,0,0,0,0,0,0,0,0,0,0,0,0,0,0,0,0,0,0,0,0,0,0,0,0,0,0,0,0,0,0,0,0,0,0,0,0,0,0,0,0,0,0,0,0,0,0,0,0,0,0,0,0,0,0,0,0,0,0,0,0,0,0,0,0,0,0,0,0,0,0,0,0,0,0,0,0,0,0,0,0,0,0,0,0,0,0,0,0,0,0,0,0,0,0,0,0,0,0,0,0,0,0,0,0,0,0,0,0,0,0,0,0,0,0,0,0,0,0,0,0,0,0,0,0,0,0,0,0,0,0,0,0,0,0,0,0,0,0,0,0,0,0,0,0,0,0,0,0,0,0,0,0,0,0,0,0,0,0,0,0,0,0,0,0,0,0,0,0,0,0,0,0,0,0,0,0,0,0,0,0,0,0,0,0,0,0,0,0,0,0,0,0,0
884,884,884,884,884,883,883,883,884,883,884,884,884,884,884,884,884,883,883,883,883,882,883,883,883,883,884,884,885,885,885,884,884,884,884,883,883,883,884,884,885,885,885,885,885,885,885,885,885,885,885,885,885,885,885,885,885,885,885,885,885,885,885,885,885,885,885,885,885,885,885,885,885,885,885,885,885,885,885,885,886,885,885,885,885,886,885,885,885,885,885,885,886,885,886,886,886,886,886,886,886,885,2047,2047,2047,2047,2047,2047,2047,2047,2047,2047,2047,2047,2047,2047,2047,2047,2047,2047,2047,2047,702,700,699,699,698,697,696,696,695,694,693,692,692,691,691,690,689,689,689,688,688,688,688,688,688,688,688,689,689,689,689,689,690,690,690,689,689,689,689,689,689,669,669,670,670,669,669,668,668,668,667,667,666,665,664,664,2047,2047,649,649,647,646,646,645,645,644,644,644,644,644,644,644,644,644,644,644,644,644,644,644,643,643,642,642,642,641,641,641,640,639,639,638,638,637,637,636,635,635,635,634,634,633,633,633,632,631,630,630,630,630,630,629,629,629,628,627,626,628,626,624,624,626,627,628,628,629,629,629,629,629,629,629,628,628,628,628,606,608,608,607,606,606,605,603,602,601,599,598,597,617,616,615,614,614,614,614,613,612,612,611,610,610,610,610,611,613,612,611,612,612,612,612,618,620,621,621,622,622,623,623,625,625,626,626,625,625,625,625,624,623,622,622,623,622,622,621,620,620,619,617,617,618,619,620,624,625,625,625,625,625,626,626,627,627,626,625,625,624,623,622,622,621,621,621,620,621,622,624,624,624,625,625,625,626,627,628,628,627,626,627,627,628,627,625,624,623,625,625,625,624,623,622,622,621,621,621,621,621,621,622,622,623,623,624,625,625,626,626,632,633,636,636,634,634,633,632,631,629,629,629,629,629,629,648,649,649,637,637,637,636,635,636,634,634,633,635,635,656,656,656,656,656,656,656,656,656,657,658,664,664,665,669,670,671,672,673,673,675,676,677,678,678,679,679,679,680,680,680,680,680,680,680,680,680,680,726,727,727,727,727,728,728,728,729,729,729,729,730,730,731,731,731,732,732,733,733,734,734,891,891,891,892,892,892,892,892,892,892,892,892,892,892,892,892,892,892,892,892,892,892,892,892,892,892,892,892,892,892,892,892,892,892,892,892,892,892,892,892,892,892,892,892,892,892,892,892,892,892,892,892,892,892,892,892,892,892,892,892,892,892,892,892,892,892,893,892,893,892,893,893,893,893,893,893,893,893,892,893,892,892,893,893,893,893,893,893,893,893,893,892,892,892,892,892,892,892,892,892,892,892,892,892,892,892,892,893,892,893,893,893,892,893,892,892,892,892,892,892,892,892,892,892,892,892,892,890,890,890,889,889,889,889,889,889,890,890,890,890,890,889,889,889,889,889,889,889,889,2047,2047,2047,2047,2047,2047,2047,2047,0,0,0,0,0,0,0,0,0,0,0,0,0,0,0,0,0,0,0,0,0,0,0,0,0,0,0,0,0,0,0,0,0,0,0,0,0,0,0,0,0,0,0,0,0,0,0,0,0,0,0,0,0,0,0,0,0,0,0,0,0,0,0,0,0,0,0,0,0,0,0,0,0,0,0,0,0,0,0,0,0,0,0,0,0,0,0,0,0,0,0,0,0,0,0,0,0,0,0,0,0,0,0,0,0,0,0,0,0,0,0,0,0,0,0,0,0,0,0,0,0,0,0,0,0,0,0,0,0,0,0,0,0,0,0,0,0,0,0,0,0,0,0,0,0,0,0,0,0,0,0,0,0,0,0,0,0,0,0,0,0,0,0,0,0,0,0,0,0,0,0,0,0,0,0,0,0,0,0,0,0,0,0,0,0,0,0,0,0,0,0,0,0,0,0,0,0,0,0,0,0,0,0,0,0,0,0,0,0,0,0,0,0,0,0,0,0,0,0,0,0,0,0,0,0,0,0,0,0,0,0,0,0,0,0,0,0,0,0,0,0,0,0,0,0,0,0,0,0,0,0,0,0,0,0,0,0,0,0,0,0,0,0,0,0,0,0,0,0,0,0,0,0,0,0,0,0,0,0,0,0,0,0,0,0,0,0,0,0,0,0,0,0,0,0,0,0,0,0,0,0,0,0,0,0,0,0,0,0,0,0,0,0,0,0,0,0,0,0,0,0,0,0,0,0,0,0,0,0,0,0,0,0,0,0,0,0,0,0,0,0,0,0,0,0,0,0,0,0,0,0,0,0,0,0,0,0,0,0,0,0,0,0,0,0,0,0,0,0,0,0,0,0,0,0,0,0,0,0,0,0,0,0,0,0,0,0,0,0,0,0,0,0,0,0,0,0,0,0,0,0,0,0,0,0,0,0,0,0,0,0,0,0,0,0,0,0,0,0,0,0,0,0,0,0,0,0,0,0,0,0,0,0,0,0,0,0,0,0,0,0,0,0,0,0,0,0,0,0,0,0,0,0,0,0,0,0,0,0,0,0,0,0,0,0,0,0,0,0,0,0,0,0,0,0,0,0,0,0,0,0,0,0,0,0,0,0,0,0,0,0,0,0,0,0,0,0,0,0,0,0,0,0,0,0,0,0,0,0,0,0,0,0,0,0,0,0,0,0,0,0,0,0,0,0,0,0,0,0,0,0,0,0,0,0,0,0,0,0,0,0,0,0,0,0,0,0,0,0,0
884,884,884,884,884,883,884,884,884,884,884,884,884,884,884,884,884,884,884,884,884,883,883,883,883,883,884,884,884,885,885,885,884,884,884,884,883,884,884,884,885,885,885,885,885,885,885,885,885,885,885,885,885,885,885,885,885,885,885,885,885,885,885,885,885,885,885,885,885,885,885,885,885,885,885,885,885,885,885,885,885,885,885,885,886,886,886,885,885,885,885,885,885,885,885,886,886,886,886,886,886,2047,2047,2047,2047,2047,2047,2047,2047,2047,2047,2047,2047,2047,2047,2047,2047,2047,2047,2047,2047,2047,701,700,700,699,698,698,697,696,695,694,693,692,692,692,691,690,690,689,689,689,688,688,688,689,688,689,689,689,689,690,690,690,690,690,690,690,690,690,690,690,691,693,693,670,670,669,669,669,668,668,668,667,666,666,665,665,2047,2047,2047,648,647,647,646,646,645,644,645,645,644,644,644,644,644,644,644,644,644,644,644,644,643,643,643,642,642,642,641,641,641,640,639,639,638,638,637,637,636,635,635,634,634,633,633,632,632,631,630,630,630,630,630,629,629,629,629,628,627,628,627,626,626,627,628,629,629,629,629,629,629,629,629,629,628,628,628,628,609,609,609,607,607,606,605,603,602,601,599,598,617,617,616,615,615,614,614,614,613,612,612,611,611,610,610,610,611,612,612,611,611,611,612,612,619,621,621,621,622,623,624,624,625,626,626,626,626,626,626,624,623,622,622,621,622,621,621,621,621,619,620,618,618,618,620,621,624,625,625,625,625,625,625,627,627,627,626,625,625,625,623,622,621,621,620,621,621,622,623,624,624,623,624,625,625,625,627,628,628,627,627,627,627,628,626,623,622,622,622,624,625,624,623,622,622,622,621,621,621,621,621,622,622,623,624,625,625,626,626,626,631,631,633,635,634,633,634,632,631,630,629,629,629,629,651,649,649,649,638,637,637,636,635,635,635,634,634,635,635,635,656,656,656,656,656,656,656,657,657,658,661,662,665,668,671,672,672,673,674,676,676,677,678,679,680,680,680,680,680,680,680,680,680,680,680,680,680,727,728,727,728,728,728,728,729,729,729,729,729,730,730,731,732,732,732,733,733,734,734,734,891,891,891,892,892,892,892,892,892,892,892,892,892,892,892,892,892,892,892,892,892,892,892,892,892,892,892,892,892,892,892,892,892,892,892,892,892,892,892,892,892,892,892,892,892,892,892,892,892,892,892,892,892,892,892,892,892,892,892,892,892,892,892,892,892,892,893,892,893,892,893,893,893,893,893,893,893,893,892,893,892,893,893,893,893,893,893,893,893,892,892,892,892,892,892,892,892,892,892,892,892,892,892,892,892,892,892,892,892,892,892,892,892,893,891,892,892,892,892,892,892,892,892,892,892,892,892,890,890,890,889,889,889,889,889,889,889,889,890,890,890,890,890,889,890,890,889,890,890,2047,2047,2047,2047,2047,2047,2047,2047,0,0,0,0,0,0,0,0,0,0,0,0,0,0,0,0,0,0,0,0,0,0,0,0,0,0,0,0,0,0,0,0,0,0,0,0,0,0,0,0,0,0,0,0,0,0,0,0,0,0,0,0,0,0,0,0,0,0,0,0,0,0,0,0,0,0,0,0,0,0,0,0,0,0,0,0,0,0,0,0,0,0,0,0,0,0,0,0,0,0,0,0,0,0,0,0,0,0,0,0,0,0,0,0,0,0,0,0,0,0,0,0,0,0,0,0,0,0,0,0,0,0,0,0,0,0,0,0,0,0,0,0,0,0,0,0,0,0,0,0,0,0,0,0,0,0,0,0,0,0,0,0,0,0,0,0,0,0,0,0,0,0,0,0,0,0,0,0,0,0,0,0,0,0,0,0,0,0,0,0,0,0,0,0,0,0,0,0,0,0,0,0,0,0,0,0,0,0,0,0,0,0,0,0,0,0,0,0,0,0,0,0,0,0,0,0,0,0,0,0,0,0,0,0,0,0,0,0,0,0,0,0,0,0,0,0,0,0,0,0,0,0,0,0,0,0,0,0,0,0,0,0,0,0,0,0,0,0,0,0,0,0,0,0,0,0,0,0,0,0,0,0,0,0,0,0,0,0,0,0,0,0,0,0,0,0,0,0,0,0,0,0,0,0,0,0,0,0,0,0,0,0,0,0,0,0,0,0,0,0,0,0,0,0,0,0,0,0,0,0,0,0,0,0,0,0,0,0,0,0,0,0,0,0,0,0,0,0,0,0,0,0,0,0,0,0,0,0,0,0,0,0,0,0,0,0,0,0,0,0,0,0,0,0,0,0,0,0,0,0,0,0,0,0,0,0,0,0,0,0,0,0,0,0,0,0,0,0,0,0,0,0,0,0,0,0,0,0,0,0,0,0,0,0,0,0,0,0,0,0,0,0,0,0,0,0,0,0,0,0,0,0,0,0,0,0,0,0,0,0,0,0,0,0,0,0,0,0,0,0,0,0,0,0,0,0,0,0,0,0,0,0,0,0,0,0,0,0,0,0,0,0,0,0,0,0,0,0,0,0,0,0,0,0,0,0,0,0,0,0,0,0,0,0,0,0,0,0,0,0,0,0,0,0,0,0,0,0,0,0,0,0,0,0,0,0,0,0,0,0,0,0,0,0,0,0,0,0,0,0,0,0,0,0,0,0,0,0,0,0,0,0,0,0,0,0,0,0,0,0,0,0,0,0,0,0,0,0,0,0
884,884,883,883,883,883,884,884,884,884,884,884,884,885,884,884,884,884,884,884,884,883,883,884,883,883,884,884,884,885,885,884,884,884,884,884,883,884,884,884,885,885,885,885,885,885,885,885,885,885,885,885,885,885,885,885,885,885,885,885,885,885,885,885,885,885,885,885,885,885,885,885,885,885,885,885,885,885,885,885,885,885,885,885,885,886,886,885,885,885,885,885,885,885,885,885,885,885,886,885,885,2047,2047,2047,2047,2047,2047,2047,2047,2047,2047,2047,2047,2047,2047,2047,2047,2047,2047,2047,2047,703,702,701,700,699,699,698,696,696,694,694,693,693,692,692,691,691,690,690,690,689,689,689,689,689,689,689,689,689,689,690,690,690,690,690,690,690,690,690,690,690,690,690,690,670,670,670,670,669,669,669,668,668,667,666,665,2047,2047,2047,2047,647,647,647,646,646,645,645,645,645,645,644,644,644,644,644,644,644,644,644,644,644,643,643,642,642,642,642,642,641,641,640,640,639,638,638,637,637,636,635,635,634,634,633,633,632,631,631,630,630,630,630,630,629,629,629,629,628,627,628,627,627,627,627,628,628,629,629,629,629,629,629,629,629,628,627,628,628,609,609,609,607,607,606,605,603,602,602,600,598,617,617,616,615,614,614,613,613,613,612,610,610,610,609,609,609,610,611,611,610,611,610,611,611,619,621,621,621,622,622,624,625,625,626,626,626,626,626,626,624,623,622,622,621,622,621,621,621,621,620,620,619,619,619,620,622,624,624,625,625,625,625,626,626,627,627,626,625,625,624,623,622,621,620,620,621,621,622,623,624,624,623,624,625,626,626,627,629,628,627,627,627,626,627,625,624,622,622,622,623,624,624,624,623,622,622,621,621,621,621,621,621,622,622,624,625,625,626,627,627,628,631,632,635,633,633,633,632,630,630,629,629,628,629,650,649,649,648,638,641,637,636,635,635,635,634,634,635,635,635,656,656,656,657,656,657,657,657,657,658,661,661,661,668,671,672,672,673,674,676,676,677,678,679,679,680,680,680,680,680,680,680,680,680,680,680,679,728,728,728,728,728,728,728,729,729,729,729,730,730,731,731,732,732,732,733,733,734,734,890,891,891,892,892,892,892,892,892,892,892,892,892,892,892,893,892,892,892,892,892,892,892,892,892,892,892,892,892,892,892,892,892,892,892,892,892,892,892,892,892,892,892,892,892,892,892,892,892,892,892,892,893,892,892,892,892,892,892,892,892,892,892,893,893,892,893,893,893,893,892,892,893,893,893,893,893,893,893,893,893,893,893,893,893,893,893,893,893,893,892,892,892,892,892,892,892,892,892,892,892,892,892,892,892,892,892,892,892,892,892,892,891,892,892,892,892,892,892,892,892,892,892,892,892,893,892,892,892,892,892,891,889,889,889,889,889,890,890,890,890,890,890,890,890,890,890,890,890,890,2047,2047,2047,2047,2047,2047,2047,2047,0,0,0,0,0,0,0,0,0,0,0,0,0,0,0,0,0,0,0,0,0,0,0,0,0,0,0,0,0,0,0,0,0,0,0,0,0,0,0,0,0,0,0,0,0,0,0,0,0,0,0,0,0,0,0,0,0,0,0,0,0,0,0,0,0,0,0,0,0,0,0,0,0,0,0,0,0,0,0,0,0,0,0,0,0,0,0,0,0,0,0,0,0,0,0,0,0,0,0,0,0,0,0,0,0,0,0,0,0,0,0,0,0,0,0,0,0,0,0,0,0,0,0,0,0,0,0,0,0,0,0,0,0,0,0,0,0,0,0,0,0,0,0,0,0,0,0,0,0,0,0,0,0,0,0,0,0,0,0,0,0,0,0,0,0,0,0,0,0,0,0,0,0,0,0,0,0,0,0,0,0,0,0,0,0,0,0,0,0,0,0,0,0,0,0,0,0,0,0,0,0,0,0,0,0,0,0,0,0,0,0,0,0,0,0,0,0,0,0,0,0,0,0,0,0,0,0,0,0,0,0,0,0,0,0,0,0,0,0,0,0,0,0,0,0,0,0,0,0,0,0,0,0,0,0,0,0,0,0,0,0,0,0,0,0,0,0,0,0,0,0,0,0,0,0,0,0,0,0,0,0,0,0,0,0,0,0,0,0,0,0,0,0,0,0,0,0,0,0,0,0,0,0,0,0,0,0,0,0,0,0,0,0,0,0,0,0,0,0,0,0,0,0,0,0,0,0,0,0,0,0,0,0,0,0,0,0,0,0,0,0,0,0,0,0,0,0,0,0,0,0,0,0,0,0,0,0,0,0,0,0,0,0,0,0,0,0,0,0,0,0,0,0,0,0,0,0,0,0,0,0,0,0,0,0,0,0,0,0,0,0,0,0,0,0,0,0,0,0,0,0,0,0,0,0,0,0,0,0,0,0,0,0,0,0,0,0,0,0,0,0,0,0,0,0,0,0,0,0,0,0,0,0,0,0,0,0,0,0,0,0,0,0,0,0,0,0,0,0,0,0,0,0,0,0,0,0,0,0,0,0,0,0,0,0,0,0,0,0,0,0,0,0,0,0,0,0,0,0,0,0,0,0,0,0,0,0,0,0,0,0,0,0,0,0,0,0,0,0,0,0,0,0,0,0,0,0,0,0,0,0,0,0,0,0,0,0,0,0,0,0,0,0,0,0,0,0,0,0,0,0,0,0,0,0,0,0,0,0,0,0,0,0,0,0,0,0,0,0,0
884,884,883,884,883,883,884,884,884,884,884,884,884,884,884,884,884,884,884,884,884,884,884,884,884,884,884,884,884,884,884,884,884,884,884,884,884,884,884,884,885,885,885,885,885,885,885,885,885,885,885,885,885,885,885,885,885,885,885,885,885,885,885,885,885,885,885,885,885,885,885,885,885,885,885,885,885,885,885,885,885,885,885,885,885,886,886,885,885,885,885,885,885,885,885,885,885,885,885,885,885,2047,2047,2047,2047,2047,2047,2047,2047,2047,2047,2047,2047,2047,2047,2047,2047,2047,2047,2047,2047,2047,702,701,700,699,699,698,696,696,695,694,693,693,693,693,692,692,691,690,690,690,689,689,689,689,689,689,689,690,689,690,690,690,690,690,690,690,690,690,690,690,691,691,2047,671,671,670,670,669,669,669,669,668,667,666,666,2047,2047,2047,2047,647,646,646,646,646,645,645,645,645,645,645,645,645,645,645,645,645,645,645,644,644,644,643,643,642,642,642,642,641,641,640,639,639,638,638,637,637,636,636,635,635,634,633,632,632,631,631,630,630,630,630,630,629,629,629,629,628,627,628,627,627,627,627,627,628,628,629,629,629,629,629,629,629,628,627,627,627,609,609,609,608,607,606,605,603,602,602,600,618,617,617,616,615,614,614,613,613,613,612,609,608,608,607,607,607,609,610,610,610,610,610,611,611,621,621,621,621,622,622,623,624,625,627,627,627,626,626,627,624,623,622,621,621,621,621,621,621,621,621,620,618,618,619,620,622,623,624,625,625,625,625,625,626,627,626,625,625,624,624,622,621,621,620,620,621,621,622,623,624,624,622,623,625,626,625,627,629,628,627,627,627,626,627,625,624,622,622,622,623,624,624,624,623,622,622,621,621,620,621,621,621,621,622,623,625,625,626,627,627,629,631,632,634,633,633,634,632,631,629,629,629,628,629,629,649,649,648,638,639,638,637,637,636,636,634,634,635,635,635,656,656,656,657,657,657,657,657,658,659,661,662,666,667,670,671,672,673,674,676,677,678,678,679,680,680,680,680,680,680,681,680,680,680,680,680,679,729,729,729,729,729,729,729,729,729,729,729,730,731,731,732,732,732,733,733,733,734,734,891,891,891,892,892,892,892,892,892,892,892,892,892,892,892,892,892,892,892,892,892,892,892,892,892,892,892,892,892,892,892,892,892,892,892,892,892,892,892,892,892,892,892,892,892,892,892,892,892,892,892,892,892,892,892,892,892,892,892,892,892,892,892,892,892,892,892,892,892,892,892,892,893,893,893,893,893,893,893,893,893,893,893,893,893,893,893,893,893,893,892,893,892,892,892,892,892,892,892,892,891,891,891,892,891,892,892,892,892,892,892,892,891,892,892,891,891,891,891,891,892,892,892,892,892,892,892,892,892,892,892,891,891,889,890,889,890,890,890,890,890,891,890,890,890,890,890,889,890,890,2047,2047,2047,2047,2047,2047,2047,2047,0,0,0,0,0,0,0,0,0,0,0,0,0,0,0,0,0,0,0,0,0,0,0,0,0,0,0,0,0,0,0,0,0,0,0,0,0,0,0,0,0,0,0,0,0,0,0,0,0,0,0,0,0,0,0,0,0,0,0,0,0,0,0,0,0,0,0,0,0,0,0,0,0,0,0,0,0,0,0,0,0,0,0,0,0,0,0,0,0,0,0,0,0,0,0,0,0,0,0,0,0,0,0,0,0,0,0,0,0,0,0,0,0,0,0,0,0,0,0,0,0,0,0,0,0,0,0,0,0,0,0,0,0,0,0,0,0,0,0,0,0,0,0,0,0,0,0,0,0,0,0,0,0,0,0,0,0,0,0,0,0,0,0,0,0,0,0,0,0,0,0,0,0,0,0,0,0,0,0,0,0,0,0,0,0,0,0,0,0,0,0,0,0,0,0,0,0,0,0,0,0,0,0,0,0,0,0,0,0,0,0,0,0,0,0,0,0,0,0,0,0,0,0,0,0,0,0,0,0,0,0,0,0,0,0,0,0,0,0,0,0,0,0,0,0,0,0,0,0,0,0,0,0,0,0,0,0,0,0,0,0,0,0,0,0,0,0,0,0,0,0,0,0,0,0,0,0,0,0,0,0,0,0,0,0,0,0,0,0,0,0,0,0,0,0,0,0,0,0,0,0,0,0,0,0,0,0,0,0,0,0,0,0,0,0,0,0,0,0,0,0,0,0,0,0,0,0,0,0,0,0,0,0,0,0,0,0,0,0,0,0,0,0,0,0,0,0,0,0,0,0,0,0,0,0,0,0,0,0,0,0,0,0,0,0,0,0,0,0,0,0,0,0,0,0,0,0,0,0,0,0,0,0,0,0,0,0,0,0,0,0,0,0,0,0,0,0,0,0,0,0,0,0,0,0,0,0,0,0,0,0,0,0,0,0,0,0,0,0,0,0,0,0,0,0,0,0,0,0,0,0,0,0,0,0,0,0,0,0,0,0,0,0,0,0,0,0,0,0,0,0,0,0,0,0,0,0,0,0,0,0,0,0,0,0,0,0,0,0,0,0,0,0,0,0,0,0,0,0,0,0,0,0,0,0,0,0,0,0,0,0,0,0,0,0,0,0,0,0,0,0,0,0,0,0,0,0,0,0,0,0,0,0,0,0,0,0,0,0,0,0,0,0,0,0,0,0,0,0,0,0,0,0,0,0,0,0,0,0,0,0,0,0,0,0,0,0,0,0,0
884,884,883,883,883,883,884,884,884,884,884,884,884,884,884,884,884,884,884,884,884,884,884,884,884,884,884,884,884,884,884,884,884,884,884,884,884,884,884,884,885,885,885,885,885,885,885,885,885,885,885,885,885,885,885,885,885,885,885,885,885,885,885,885,885,885,885,885,885,885,885,885,885,885,885,885,885,885,885,885,885,885,885,885,885,886,886,885,885,885,885,885,885,885,885,885,885,885,885,885,2047,2047,2047,2047,2047,2047,2047,2047,2047,2047,2047,2047,2047,2047,2047,2047,2047,2047,2047,2047,2047,2047,2047,2047,700,699,698,698,697,697,695,695,694,693,693,693,693,692,692,691,691,690,690,690,689,690,690,690,690,690,690,690,690,690,690,690,690,690,690,690,691,691,691,691,674,672,672,671,670,670,669,669,669,669,668,667,667,667,2047,2047,646,646,646,646,646,646,645,645,645,645,646,645,645,645,645,645,645,645,645,645,644,644,644,643,643,642,642,641,642,641,641,640,639,639,638,638,637,637,636,636,635,635,634,633,632,632,631,630,630,630,630,630,630,629,629,629,629,628,628,628,628,628,627,627,627,628,628,629,629,629,629,628,628,628,628,627,627,627,609,609,609,608,607,606,605,604,602,602,601,600,617,617,616,615,614,614,613,614,613,612,609,608,607,607,606,606,607,610,610,610,610,610,610,620,620,621,621,621,622,622,623,623,625,627,627,627,627,627,627,625,623,622,622,621,621,621,621,623,620,621,620,617,618,619,620,621,622,623,624,624,624,625,625,626,626,626,625,624,624,623,622,621,620,620,620,621,621,622,623,623,623,622,622,622,625,624,625,628,628,627,627,627,627,628,627,625,622,622,622,623,624,623,624,623,622,621,621,620,620,620,620,621,621,621,623,624,625,626,627,627,629,630,632,635,633,633,633,633,628,630,628,628,628,628,629,650,649,648,648,640,638,637,637,636,636,635,634,635,635,2047,655,655,656,656,656,657,657,657,657,658,662,661,667,668,669,671,672,675,675,677,677,678,679,680,680,681,681,681,681,681,681,681,681,681,681,680,680,729,729,729,729,729,729,729,729,729,729,729,730,731,731,732,732,733,733,734,734,735,735,891,891,891,891,892,892,892,892,892,892,892,892,892,892,892,892,892,892,892,892,892,892,892,892,892,892,892,892,892,892,892,892,892,892,892,892,892,892,892,892,892,892,892,892,892,892,892,893,892,892,892,892,893,892,892,892,892,892,892,892,892,892,892,893,892,892,892,892,892,892,892,892,892,892,893,893,893,893,893,893,893,892,893,893,893,893,893,893,893,893,893,893,893,893,892,892,892,892,892,892,891,891,891,891,891,891,891,892,892,890,890,891,891,891,892,891,891,891,891,891,892,892,892,892,892,892,892,892,892,892,892,888,889,889,890,890,890,890,890,890,890,891,891,891,891,891,891,890,890,890,2047,2047,2047,2047,2047,2047,2047,2047,0,0,0,0,0,0,0,0,0,0,0,0,0,0,0,0,0,0,0,0,0,0,0,0,0,0,0,0,0,0,0,0,0,0,0,0,0,0,0,0,0,0,0,0,0,0,0,0,0,0,0,0,0,0,0,0,0,0,0,0,0,0,0,0,0,0,0,0,0,0,0,0,0,0,0,0,0,0,0,0,0,0,0,0,0,0,0,0,0,0,0,0,0,0,0,0,0,0,0,0,0,0,0,0,0,0,0,0,0,0,0,0,0,0,0,0,0,0,0,0,0,0,0,0,0,0,0,0,0,0,0,0,0,0,0,0,0,0,0,0,0,0,0,0,0,0,0,0,0,0,0,0,0,0,0,0,0,0,0,0,0,0,0,0,0,0,0,0,0,0,0,0,0,0,0,0,0,0,0,0,0,0,0,0,0,0,0,0,0,0,0,0,0,0,0,0,0,0,0,0,0,0,0,0,0,0,0,0,0,0,0,0,0,0,0,0,0,0,0,0,0,0,0,0,0,0,0,0,0,0,0,0,0,0,0,0,0,0,0,0,0,0,0,0,0,0,0,0,0,0,0,0,0,0,0,0,0,0,0,0,0,0,0,0,0,0,0,0,0,0,0,0,0,0,0,0,0,0,0,0,0,0,0,0,0,0,0,0,0,0,0,0,0,0,0,0,0,0,0,0,0,0,0,0,0,0,0,0,0,0,0,0,0,0,0,0,0,0,0,0,0,0,0,0,0,0,0,0,0,0,0,0,0,0,0,0,0,0,0,0,0,0,0,0,0,0,0,0,0,0,0,0,0,0,0,0,0,0,0,0,0,0,0,0,0,0,0,0,0,0,0,0,0,0,0,0,0,0,0,0,0,0,0,0,0,0,0,0,0,0,0,0,0,0,0,0,0,0,0,0,0,0,0,0,0,0,0,0,0,0,0,0,0,0,0,0,0,0,0,0,0,0,0,0,0,0,0,0,0,0,0,0,0,0,0,0,0,0,0,0,0,0,0,0,0,0,0,0,0,0,0,0,0,0,0,0,0,0,0,0,0,0,0,0,0,0,0,0,0,0,0,0,0,0,0,0,0,0,0,0,0,0,0,0,0,0,0,0,0,0,0,0,0,0,0,0,0,0,0,0,0,0,0,0,0,0,0,0,0,0,0,0,0,0,0,0,0,0,0,0,0,0,0,0,0,0,0,0,0,0,0,0,0,0,0,0,0,0,0,0,0,0,0,0,0,0,0,0,0,0
884,884,883,883,883,883,884,884,884,884,884,884,884,884,884,884,884,884,884,884,884,884,884,884,884,884,884,884,884,884,884,884,884,884,884,884,884,885,885,885,885,885,885,885,885,885,885,885,885,885,885,885,885,885,885,885,885,885,885,885,885,885,885,884,885,885,885,885,884,885,885,885,885,885,885,885,885,885,885,885,885,885,885,886,885,886,886,885,885,885,885,885,885,885,885,885,885,885,885,885,2047,2047,2047,2047,2047,2047,2047,2047,2047,2047,2047,2047,2047,2047,2047,2047,2047,2047,2047,2047,2047,2047,2047,2047,700,699,699,698,697,697,696,695,694,694,693,693,693,693,692,691,691,691,690,690,690,690,690,691,690,691,690,690,690,690,690,690,690,690,691,691,691,691,691,691,674,674,672,672,671,670,670,670,670,669,668,668,668,668,2047,2047,646,646,646,646,646,646,646,646,646,646,646,646,646,646,646,645,645,645,645,644,644,644,644,644,643,642,642,642,642,641,641,640,640,639,638,638,637,637,636,636,635,635,634,633,633,632,631,631,630,630,630,630,630,629,629,629,629,628,628,628,628,628,627,628,628,628,628,628,629,629,628,628,628,628,627,627,627,627,609,609,610,609,608,607,605,603,602,602,601,600,617,617,616,615,614,614,613,613,612,612,609,609,607,607,607,606,607,609,610,610,610,610,620,619,619,621,621,621,622,623,623,625,626,627,627,627,627,627,627,625,623,622,622,622,621,621,621,620,620,619,618,618,618,619,620,621,622,623,624,624,624,625,626,626,626,626,625,624,624,623,622,621,620,619,620,621,621,621,622,623,622,622,622,621,622,622,622,628,627,627,627,627,627,627,627,625,623,622,622,623,624,623,625,623,622,621,621,621,620,620,620,620,621,621,623,624,625,626,626,627,628,629,632,635,634,640,640,632,630,628,628,628,628,628,651,650,649,649,649,639,638,637,637,637,636,636,634,634,634,2047,655,655,655,655,656,657,657,657,657,658,662,665,667,667,669,671,673,675,676,678,678,679,680,680,681,681,681,681,681,681,681,681,681,681,681,681,680,729,730,730,729,729,729,729,729,730,730,730,731,731,732,732,733,733,733,734,735,736,736,891,891,891,891,891,891,892,891,892,892,892,892,892,892,892,892,892,892,892,892,892,892,892,892,892,892,892,892,892,892,892,892,892,892,892,892,892,892,892,892,892,892,892,892,892,892,892,892,892,892,892,892,892,892,892,892,893,893,892,893,892,893,893,893,892,892,892,892,892,892,892,892,892,892,893,893,893,893,893,893,893,893,893,893,893,893,893,893,893,893,892,892,893,892,892,892,892,892,892,892,891,891,891,891,891,891,891,889,890,889,890,891,890,890,891,891,891,891,891,891,892,892,892,892,892,892,892,892,892,892,891,889,889,889,889,890,890,890,890,890,890,891,891,891,891,891,891,891,891,890,2047,2047,2047,2047,2047,2047,2047,2047,0,0,0,0,0,0,0,0,0,0,0,0,0,0,0,0,0,0,0,0,0,0,0,0,0,0,0,0,0,0,0,0,0,0,0,0,0,0,0,0,0,0,0,0,0,0,0,0,0,0,0,0,0,0,0,0,0,0,0,0,0,0,0,0,0,0,0,0,0,0,0,0,0,0,0,0,0,0,0,0,0,0,0,0,0,0,0,0,0,0,0,0,0,0,0,0,0,0,0,0,0,0,0,0,0,0,0,0,0,0,0,0,0,0,0,0,0,0,0,0,0,0,0,0,0,0,0,0,0,0,0,0,0,0,0,0,0,0,0,0,0,0,0,0,0,0,0,0,0,0,0,0,0,0,0,0,0,0,0,0,0,0,0,0,0,0,0,0,0,0,0,0,0,0,0,0,0,0,0,0,0,0,0,0,0,0,0,0,0,0,0,0,0,0,0,0,0,0,0,0,0,0,0,0,0,0,0,0,0,0,0,0,0,0,0,0,0,0,0,0,0,0,0,0,0,0,0,0,0,0,0,0,0,0,0,0,0,0,0,0,0,0,0,0,0,0,0,0,0,0,0,0,0,0,0,0,0,0,0,0,0,0,0,0,0,0,0,0,0,0,0,0,0,0,0,0,0,0,0,0,0,0,0,0,0,0,0,0,0,0,0,0,0,0,0,0,0,0,0,0,0,0,0,0,0,0,0,0,0,0,0,0,0,0,0,0,0,0,0,0,0,0,0,0,0,0,0,0,0,0,0,0,0,0,0,0,0,0,0,0,0,0,0,0,0,0,0,0,0,0,0,0,0,0,0,0,0,0,0,0,0,0,0,0,0,0,0,0,0,0,0,0,0,0,0,0,0,0,0,0,0,0,0,0,0,0,0,0,0,0,0,0,0,0,0,0,0,0,0,0,0,0,0,0,0,0,0,0,0,0,0,0,0,0,0,0,0,0,0,0,0,0,0,0,0,0,0,0,0,0,0,0,0,0,0,0,0,0,0,0,0,0,0,0,0,0,0,0,0,0,0,0,0,0,0,0,0,0,0,0,0,0,0,0,0,0,0,0,0,0,0,0,0,0,0,0,0,0,0,0,0,0,0,0,0,0,0,0,0,0,0,0,0,0,0,0,0,0,0,0,0,0,0,0,0,0,0,0,0,0,0,0,0,0,0,0,0,0,0,0,0,0,0,0,0,0,0,0,0,0,0,0,0,0,0,0,0,0,0,0,0,0,0,0,0,0,0,0,0,0
884,884,884,883,883,883,884,884,883,883,883,883,883,884,884,884,884,884,884,884,884,884,884,884,884,884,884,884,884,884,884,884,884,884,884,884,884,885,885,885,885,885,885,885,885,885,886,885,885,885,885,885,885,885,885,885,885,885,885,885,885,884,884,884,884,884,885,885,884,885,884,885,884,884,884,885,885,884,885,885,885,885,885,885,885,885,885,885,885,885,885,885,885,885,885,885,884,884,885,884,2047,2047,2047,2047,2047,2047,2047,2047,2047,2047,2047,2047,2047,2047,2047,2047,2047,2047,2047,2047,2047,2047,2047,2047,699,699,698,698,698,697,697,696,694,694,694,693,693,693,693,692,692,692,691,691,690,691,691,691,691,691,691,691,691,691,690,690,690,690,691,692,692,691,691,691,691,672,672,672,671,671,671,671,670,670,669,668,668,668,2047,2047,647,647,647,647,646,646,646,646,646,646,646,646,646,646,646,646,645,645,645,645,644,645,644,644,643,643,642,642,642,641,641,640,640,639,638,638,637,637,636,636,635,635,634,633,632,632,631,630,630,630,630,629,629,629,629,629,629,628,628,628,628,628,627,628,627,627,628,628,628,628,628,628,628,628,628,627,627,627,610,610,610,609,609,607,605,603,602,602,601,600,618,617,616,616,615,614,613,613,612,612,610,609,609,608,607,607,608,609,610,610,610,618,620,620,619,621,621,621,622,622,623,625,626,627,627,627,627,627,626,624,623,622,622,622,622,621,622,621,622,620,619,618,619,620,620,622,622,623,625,624,625,625,625,626,626,626,625,624,624,623,622,620,619,618,619,621,621,622,622,623,622,621,621,621,621,621,622,622,627,627,627,626,626,627,626,624,622,621,621,620,626,628,628,627,622,620,620,620,620,620,620,620,621,621,623,624,624,625,626,626,627,629,629,629,642,642,642,642,627,628,628,628,628,628,650,650,650,650,650,639,638,637,637,636,636,636,634,634,634,634,655,655,656,656,656,657,657,657,657,658,661,661,666,667,670,671,673,675,676,677,678,679,680,681,681,681,681,681,681,681,681,681,681,682,682,681,729,729,730,730,729,729,730,730,730,730,730,730,731,732,733,733,733,734,734,735,735,736,737,891,892,891,891,891,891,891,891,892,892,892,891,892,892,892,892,892,892,892,892,892,892,892,892,892,892,892,892,892,892,892,892,892,892,892,892,892,892,892,892,892,892,892,892,892,892,892,893,892,892,892,892,892,892,892,892,892,892,892,892,892,893,893,893,892,892,892,892,892,891,892,892,892,892,892,893,892,893,893,892,892,892,893,892,892,892,892,893,892,892,892,892,892,892,892,892,892,892,892,892,891,891,891,891,889,889,889,889,890,889,890,890,890,890,891,891,891,891,891,891,892,892,892,892,892,892,892,892,892,892,891,891,889,889,889,889,889,891,890,891,891,891,891,891,891,890,891,891,890,890,2047,2047,2047,2047,2047,2047,2047,2047,0,0,0,0,0,0,0,0,0,0,0,0,0,0,0,0,0,0,0,0,0,0,0,0,0,0,0,0,0,0,0,0,0,0,0,0,0,0,0,0,0,0,0,0,0,0,0,0,0,0,0,0,0,0,0,0,0,0,0,0,0,0,0,0,0,0,0,0,0,0,0,0,0,0,0,0,0,0,0,0,0,0,0,0,0,0,0,0,0,0,0,0,0,0,0,0,0,0,0,0,0,0,0,0,0,0,0,0,0,0,0,0,0,0,0,0,0,0,0,0,0,0,0,0,0,0,0,0,0,0,0,0,0,0,0,0,0,0,0,0,0,0,0,0,0,0,0,0,0,0,0,0,0,0,0,0,0,0,0,0,0,0,0,0,0,0,0,0,0,0,0,0,0,0,0,0,0,0,0,0,0,0,0,0,0,0,0,0,0,0,0,0,0,0,0,0,0,0,0,0,0,0,0,0,0,0,0,0,0,0,0,0,0,0,0,0,0,0,0,0,0,0,0,0,0,0,0,0,0,0,0,0,0,0,0,0,0,0,0,0,0,0,0,0,0,0,0,0,0,0,0,0,0,0,0,0,0,0,0,0,0,0,0,0,0,0,0,0,0,0,0,0,0,0,0,0,0,0,0,0,0,0,0,0,0,0,0,0,0,0,0,0,0,0,0,0,0,0,0,0,0,0,0,0,0,0,0,0,0,0,0,0,0,0,0,0,0,0,0,0,0,0,0,0,0,0,0,0,0,0,0,0,0,0,0,0,0,0,0,0,0,0,0,0,0,0,0,0,0,0,0,0,0,0,0,0,0,0,0,0,0,0,0,0,0,0,0,0,0,0,0,0,0,0,0,0,0,0,0,0,0,0,0,0,0,0,0,0,0,0,0,0,0,0,0,0,0,0,0,0,0,0,0,0,0,0,0,0,0,0,0,0,0,0,0,0,0,0,0,0,0,0,0,0,0,0,0,0,0,0,0,0,0,0,0,0,0,0,0,0,0,0,0,0,0,0,0,0,0,0,0,0,0,0,0,0,0,0,0,0,0,0,0,0,0,0,0,0,0,0,0,0,0,0,0,0,0,0,0,0,0,0,0,0,0,0,0,0,0,0,0,0,0,0,0,0,0,0,0,0,0,0,0,0,0,0,0,0,0,0,0,0,0,0,0,0,0,0,0,0,0,0,0,0,0,0,0,0,0,0,0,0,0,0,0,0,0,0,0,0,0,0,0,0,0,0,0,0,0,0
884,884,884,883,883,884,884,884,884,883,883,884,884,883,883,884,884,883,884,884,884,884,884,884,884,885,885,885,885,885,884,884,884,884,885,884,884,885,885,885,885,885,885,885,885,885,886,886,885,886,885,885,885,885,885,885,884,885,884,884,884,884,884,884,884,884,885,885,884,885,884,884,884,884,884,884,884,884,885,885,885,885,885,885,885,885,885,885,885,885,885,885,885,885,885,885,884,884,885,884,2047,2047,2047,2047,2047,2047,2047,2047,2047,2047,2047,2047,2047,2047,2047,2047,2047,2047,2047,2047,2047,2047,2047,2047,699,698,698,698,698,698,697,696,695,694,694,694,693,693,693,692,692,692,691,691,690,691,691,691,691,691,691,691,691,691,691,691,691,691,692,693,693,692,692,692,697,672,672,672,672,671,672,671,671,670,669,669,668,668,671,671,646,646,647,647,647,647,646,646,646,646,646,646,646,646,646,645,645,645,645,645,644,644,644,644,643,643,642,642,642,641,641,640,639,639,638,638,637,637,636,636,635,634,634,633,632,632,631,630,630,630,630,630,629,629,629,629,629,628,628,628,628,628,628,628,628,628,628,628,628,628,628,628,627,628,627,627,627,627,611,611,611,610,609,608,603,603,602,601,600,597,618,617,617,616,615,614,614,614,613,612,611,611,610,609,608,608,609,609,609,609,609,2047,618,620,619,620,621,621,622,622,622,625,625,627,627,627,627,626,626,624,623,622,622,622,622,622,622,621,622,621,618,618,619,619,619,621,623,624,626,625,625,625,625,626,626,626,625,624,624,623,621,620,618,618,619,620,621,621,622,622,622,621,621,620,621,621,621,622,625,626,626,626,626,626,626,624,621,621,621,620,622,627,627,627,623,621,620,620,620,620,620,620,620,621,622,623,624,625,626,626,627,628,629,629,641,641,641,641,628,628,628,628,628,628,628,650,650,650,652,652,638,637,637,636,636,635,635,634,634,634,656,656,656,656,656,656,657,657,657,658,661,661,667,668,670,672,674,676,677,678,679,680,680,681,681,682,681,682,682,681,681,682,682,682,683,682,682,729,729,729,729,729,730,730,730,730,731,731,731,732,733,733,734,734,735,735,736,736,737,738,892,892,892,892,892,892,892,892,892,892,892,892,892,892,892,892,892,892,892,892,892,892,892,892,892,892,892,892,892,892,892,892,892,892,892,892,892,892,892,892,892,892,892,892,892,892,892,892,892,893,893,893,892,892,892,893,892,892,892,892,893,893,893,892,892,892,892,892,891,892,892,892,892,892,892,892,892,892,892,892,892,893,892,892,892,892,893,893,893,892,892,892,892,892,892,892,892,892,892,891,891,891,891,889,889,889,889,890,890,890,890,890,890,890,890,891,891,891,891,891,892,892,892,891,892,892,892,891,891,891,891,891,891,889,891,889,891,891,891,891,891,891,891,891,891,891,891,891,891,2047,2047,2047,2047,2047,2047,2047,2047,0,0,0,0,0,0,0,0,0,0,0,0,0,0,0,0,0,0,0,0,0,0,0,0,0,0,0,0,0,0,0,0,0,0,0,0,0,0,0,0,0,0,0,0,0,0,0,0,0,0,0,0,0,0,0,0,0,0,0,0,0,0,0,0,0,0,0,0,0,0,0,0,0,0,0,0,0,0,0,0,0,0,0,0,0,0,0,0,0,0,0,0,0,0,0,0,0,0,0,0,0,0,0,0,0,0,0,0,0,0,0,0,0,0,0,0,0,0,0,0,0,0,0,0,0,0,0,0,0,0,0,0,0,0,0,0,0,0,0,0,0,0,0,0,0,0,0,0,0,0,0,0,0,0,0,0,0,0,0,0,0,0,0,0,0,0,0,0,0,0,0,0,0,0,0,0,0,0,0,0,0,0,0,0,0,0,0,0,0,0,0,0,0,0,0,0,0,0,0,0,0,0,0,0,0,0,0,0,0,0,0,0,0,0,0,0,0,0,0,0,0,0,0,0,0,0,0,0,0,0,0,0,0,0,0,0,0,0,0,0,0,0,0,0,0,0,0,0,0,0,0,0,0,0,0,0,0,0,0,0,0,0,0,0,0,0,0,0,0,0,0,0,0,0,0,0,0,0,0,0,0,0,0,0,0,0,0,0,0,0,0,0,0,0,0,0,0,0,0,0,0,0,0,0,0,0,0,0,0,0,0,0,0,0,0,0,0,0,0,0,0,0,0,0,0,0,0,0,0,0,0,0,0,0,0,0,0,0,0,0,0,0,0,0,0,0,0,0,0,0,0,0,0,0,0,0,0,0,0,0,0,0,0,0,0,0,0,0,0,0,0,0,0,0,0,0,0,0,0,0,0,0,0,0,0,0,0,0,0,0,0,0,0,0,0,0,0,0,0,0,0,0,0,0,0,0,0,0,0,0,0,0,0,0,0,0,0,0,0,0,0,0,0,0,0,0,0,0,0,0,0,0,0,0,0,0,0,0,0,0,0,0,0,0,0,0,0,0,0,0,0,0,0,0,0,0,0,0,0,0,0,0,0,0,0,0,0,0,0,0,0,0,0,0,0,0,0,0,0,0,0,0,0,0,0,0,0,0,0,0,0,0,0,0,0,0,0,0,0,0,0,0,0,0,0,0,0,0,0,0,0,0,0,0,0,0,0,0,0,0,0,0,0,0,0,0,0,0,0,0,0,0,0,0,0,0,0,0,0,0,0,0,0,0,0,0,0,0,0,0
884,884,884,883,883,884,884,884,884,884,884,884,884,884,884,884,884,883,883,884,884,884,884,884,884,885,885,885,885,885,885,885,884,884,885,885,885,885,885,885,885,885,885,885,885,885,886,886,886,886,885,885,885,885,885,885,884,884,884,884,884,884,884,884,885,885,885,885,884,884,884,884,883,883,884,884,884,884,884,885,885,885,885,885,885,885,885,885,885,885,885,885,885,885,885,885,884,884,884,884,2047,2047,2047,2047,2047,2047,2047,2047,2047,2047,2047,2047,2047,2047,2047,2047,2047,2047,2047,2047,2047,2047,2047,2047,699,699,699,698,698,698,697,696,695,695,694,694,694,693,693,693,693,693,692,692,691,691,692,692,692,692,691,692,692,691,692,692,691,692,693,693,693,693,693,695,697,672,672,672,673,672,672,672,671,671,670,670,669,672,671,671,646,646,646,647,646,647,647,647,646,646,646,646,646,646,646,646,645,645,645,645,645,645,644,644,644,643,643,642,642,641,641,640,639,638,638,637,637,637,636,636,634,634,634,633,632,632,631,630,630,630,630,629,629,629,629,629,629,628,628,629,628,628,628,628,628,628,628,627,628,628,628,628,628,628,628,627,628,628,611,611,611,610,610,610,603,603,601,600,600,618,618,617,616,616,615,614,614,614,613,613,612,612,610,610,609,609,610,610,609,2047,2047,2047,2047,619,619,620,621,622,622,622,622,624,625,626,626,626,626,626,626,624,623,622,622,622,622,622,622,622,622,620,619,618,619,620,619,621,622,623,626,625,625,626,625,625,626,625,624,624,623,622,620,620,619,618,619,620,621,621,622,621,621,621,621,620,620,621,622,623,625,626,626,626,625,625,625,622,621,621,621,619,621,628,628,627,628,621,620,621,620,620,620,620,620,621,621,622,624,624,625,626,626,627,643,640,641,641,641,633,629,629,629,628,628,628,628,650,650,650,652,652,652,637,637,636,636,636,635,634,634,634,656,656,656,656,656,656,657,657,657,658,660,661,665,667,670,671,675,676,677,678,679,680,681,681,682,682,682,682,682,682,682,682,683,683,684,684,683,730,730,730,730,730,730,731,731,731,731,731,732,732,733,733,734,734,735,735,736,737,737,738,892,891,892,892,892,892,892,892,892,892,892,891,892,892,892,892,892,892,892,892,892,892,892,892,892,892,892,892,892,892,892,892,892,892,892,892,892,892,892,892,892,892,892,892,892,892,892,892,892,893,893,893,892,892,892,893,892,892,892,892,893,893,893,892,892,892,892,892,891,892,891,892,892,892,892,892,892,892,892,892,892,892,892,892,893,893,893,893,893,893,892,892,892,892,892,892,892,892,892,891,891,891,891,889,889,889,890,890,890,890,890,890,890,890,890,891,890,891,891,891,891,891,891,890,890,890,891,891,891,889,891,889,891,889,889,889,891,889,891,891,891,891,892,892,891,891,891,891,891,2047,2047,2047,2047,2047,2047,2047,2047,0,0,0,0,0,0,0,0,0,0,0,0,0,0,0,0,0,0,0,0,0,0,0,0,0,0,0,0,0,0,0,0,0,0,0,0,0,0,0,0,0,0,0,0,0,0,0,0,0,0,0,0,0,0,0,0,0,0,0,0,0,0,0,0,0,0,0,0,0,0,0,0,0,0,0,0,0,0,0,0,0,0,0,0,0,0,0,0,0,0,0,0,0,0,0,0,0,0,0,0,0,0,0,0,0,0,0,0,0,0,0,0,0,0,0,0,0,0,0,0,0,0,0,0,0,0,0,0,0,0,0,0,0,0,0,0,0,0,0,0,0,0,0,0,0,0,0,0,0,0,0,0,0,0,0,0,0,0,0,0,0,0,0,0,0,0,0,0,0,0,0,0,0,0,0,0,0,0,0,0,0,0,0,0,0,0,0,0,0,0,0,0,0,0,0,0,0,0,0,0,0,0,0,0,0,0,0,0,0,0,0,0,0,0,0,0,0,0,0,0,0,0,0,0,0,0,0,0,0,0,0,0,0,0,0,0,0,0,0,0,0,0,0,0,0,0,0,0,0,0,0,0,0,0,0,0,0,0,0,0,0,0,0,0,0,0,0,0,0,0,0,0,0,0,0,0,0,0,0,0,0,0,0,0,0,0,0,0,0,0,0,0,0,0,0,0,0,0,0,0,0,0,0,0,0,0,0,0,0,0,0,0,0,0,0,0,0,0,0,0,0,0,0,0,0,0,0,0,0,0,0,0,0,0,0,0,0,0,0,0,0,0,0,0,0,0,0,0,0,0,0,0,0,0,0,0,0,0,0,0,0,0,0,0,0,0,0,0,0,0,0,0,0,0,0,0,0,0,0,0,0,0,0,0,0,0,0,0,0,0,0,0,0,0,0,0,0,0,0,0,0,0,0,0,0,0,0,0,0,0,0,0,0,0,0,0,0,0,0,0,0,0,0,0,0,0,0,0,0,0,0,0,0,0,0,0,0,0,0,0,0,0,0,0,0,0,0,0,0,0,0,0,0,0,0,0,0,0,0,0,0,0,0,0,0,0,0,0,0,0,0,0,0,0,0,0,0,0,0,0,0,0,0,0,0,0,0,0,0,0,0,0,0,0,0,0,0,0,0,0,0,0,0,0,0,0,0,0,0,0,0,0,0,0,0,0,0,0,0,0,0,0,0,0,0,0,0,0,0,0,0,0,0,0,0,0,0,0,0,0,0,0,0,0,0,0,0,0,0,0
884,884,884,883,883,884,884,884,884,884,884,884,884,884,883,884,883,883,883,884,884,884,884,884,884,885,885,885,885,885,885,885,885,884,885,885,885,885,885,885,885,885,885,885,886,886,886,886,886,886,885,885,885,885,885,884,884,884,883,884,884,883,883,884,884,884,885,885,884,884,884,884,883,883,883,884,884,884,885,885,885,885,885,885,885,885,885,885,885,885,885,885,885,885,885,885,884,884,884,884,2047,2047,2047,2047,2047,2047,2047,2047,2047,2047,2047,2047,2047,2047,2047,2047,2047,2047,2047,2047,2047,2047,706,706,705,698,699,698,698,698,697,697,696,696,695,694,694,693,693,693,693,693,692,692,691,693,692,693,692,692,692,692,692,692,693,692,692,693,694,694,694,694,694,696,670,672,673,673,673,673,673,672,671,671,670,670,670,670,670,668,646,646,646,647,646,647,646,646,646,646,646,646,646,646,646,646,646,645,645,645,645,645,644,644,644,643,642,642,642,641,641,640,639,638,638,637,637,636,636,636,634,634,634,633,632,631,630,630,630,630,630,629,629,629,629,629,628,628,628,628,628,628,628,628,627,628,628,627,627,627,628,628,628,627,627,627,627,627,610,610,610,610,610,609,603,602,601,601,600,618,618,617,616,616,615,614,614,613,612,612,611,611,610,610,609,609,610,610,2047,2047,2047,2047,2047,621,619,620,621,622,622,622,623,624,625,626,626,626,626,626,625,625,624,623,622,622,622,622,622,622,621,620,618,618,619,620,619,621,623,624,626,625,626,626,625,626,626,625,624,624,623,622,620,620,618,619,619,620,621,622,621,621,621,620,620,620,620,621,621,623,625,625,626,626,625,625,624,622,620,623,622,619,619,629,628,628,628,627,627,621,620,620,620,620,620,620,621,622,623,624,625,626,626,626,644,644,641,640,639,633,629,628,628,628,628,628,628,650,650,652,652,652,652,652,637,637,636,636,635,635,634,633,633,655,656,656,656,656,657,657,657,658,658,660,665,668,670,671,674,676,677,679,680,681,681,681,682,683,683,683,683,683,683,683,683,684,684,684,684,730,730,730,730,730,731,731,731,731,732,732,732,732,733,733,734,735,735,736,736,737,737,738,892,891,891,891,891,892,891,892,892,892,892,891,892,892,892,892,892,892,892,892,892,892,892,892,892,892,892,892,892,892,892,892,892,892,892,892,892,892,892,892,892,892,892,892,892,892,892,892,892,892,893,893,892,892,892,893,892,893,892,893,893,893,893,892,892,892,892,892,892,892,892,892,892,892,892,892,892,892,892,892,892,892,892,892,892,892,893,893,893,892,892,892,892,892,892,892,892,892,892,892,892,891,891,889,891,891,891,891,890,890,890,890,890,890,890,890,890,891,891,890,891,891,891,890,890,889,891,891,891,889,891,889,891,889,889,889,891,889,891,892,892,892,892,892,892,892,892,891,889,2047,2047,2047,2047,2047,2047,2047,2047,0,0,0,0,0,0,0,0,0,0,0,0,0,0,0,0,0,0,0,0,0,0,0,0,0,0,0,0,0,0,0,0,0,0,0,0,0,0,0,0,0,0,0,0,0,0,0,0,0,0,0,0,0,0,0,0,0,0,0,0,0,0,0,0,0,0,0,0,0,0,0,0,0,0,0,0,0,0,0,0,0,0,0,0,0,0,0,0,0,0,0,0,0,0,0,0,0,0,0,0,0,0,0,0,0,0,0,0,0,0,0,0,0,0,0,0,0,0,0,0,0,0,0,0,0,0,0,0,0,0,0,0,0,0,0,0,0,0,0,0,0,0,0,0,0,0,0,0,0,0,0,0,0,0,0,0,0,0,0,0,0,0,0,0,0,0,0,0,0,0,0,0,0,0,0,0,0,0,0,0,0,0,0,0,0,0,0,0,0,0,0,0,0,0,0,0,0,0,0,0,0,0,0,0,0,0,0,0,0,0,0,0,0,0,0,0,0,0,0,0,0,0,0,0,0,0,0,0,0,0,0,0,0,0,0,0,0,0,0,0,0,0,0,0,0,0,0,0,0,0,0,0,0,0,0,0,0,0,0,0,0,0,0,0,0,0,0,0,0,0,0,0,0,0,0,0,0,0,0,0,0,0,0,0,0,0,0,0,0,0,0,0,0,0,0,0,0,0,0,0,0,0,0,0,0,0,0,0,0,0,0,0,0,0,0,0,0,0,0,0,0,0,0,0,0,0,0,0,0,0,0,0,0,0,0,0,0,0,0,0,0,0,0,0,0,0,0,0,0,0,0,0,0,0,0,0,0,0,0,0,0,0,0,0,0,0,0,0,0,0,0,0,0,0,0,0,0,0,0,0,0,0,0,0,0,0,0,0,0,0,0,0,0,0,0,0,0,0,0,0,0,0,0,0,0,0,0,0,0,0,0,0,0,0,0,0,0,0,0,0,0,0,0,0,0,0,0,0,0,0,0,0,0,0,0,0,0,0,0,0,0,0,0,0,0,0,0,0,0,0,0,0,0,0,0,0,0,0,0,0,0,0,0,0,0,0,0,0,0,0,0,0,0,0,0,0,0,0,0,0,0,0,0,0,0,0,0,0,0,0,0,0,0,0,0,0,0,0,0,0,0,0,0,0,0,0,0,0,0,0,0,0,0,0,0,0,0,0,0,0,0,0,0,0,0,0,0,0,0,0,0,0,0,0,0,0,0,0,0,0,0,0,0,0,0,0,0,0,0,0
884,884,884,884,884,884,884,884,884,884,884,884,884,884,884,884,883,883,883,884,884,883,883,883,884,885,885,885,885,885,885,885,885,885,885,885,885,885,885,885,885,885,885,886,886,885,886,886,886,886,885,885,885,885,885,884,884,884,883,883,884,884,884,884,885,885,885,885,884,884,884,884,883,883,883,884,884,885,885,885,885,885,885,885,885,885,885,885,885,885,885,885,885,885,885,885,884,884,884,884,2047,2047,2047,2047,2047,2047,2047,2047,2047,2047,2047,2047,2047,2047,2047,2047,2047,2047,2047,2047,2047,2047,706,705,699,698,698,698,698,698,697,697,696,696,696,695,695,694,694,693,694,693,693,693,693,693,693,693,693,693,693,693,693,693,694,694,694,694,695,695,695,696,695,696,670,672,673,673,674,673,673,673,672,672,671,671,670,672,671,671,648,647,647,647,647,647,647,647,647,647,647,647,646,646,646,646,646,646,646,645,645,645,645,645,645,644,643,642,642,642,641,640,639,638,638,637,637,636,635,635,634,634,633,633,632,631,630,630,630,630,630,629,629,629,629,629,629,628,628,629,628,628,628,628,628,628,628,627,628,627,628,628,628,627,627,627,627,627,627,610,611,611,611,610,603,602,601,601,600,618,618,617,616,616,615,614,614,614,613,613,612,612,610,610,610,610,611,611,2047,2047,2047,2047,2047,2047,620,621,621,622,622,622,622,622,625,626,626,626,626,626,625,624,624,623,622,622,622,622,622,622,622,621,619,619,620,620,620,621,623,624,626,625,626,626,625,625,625,625,624,624,623,622,620,619,619,619,620,620,620,622,621,621,621,621,621,621,621,622,623,623,625,625,626,626,625,625,624,622,619,623,622,618,618,629,628,628,628,628,628,626,621,620,620,619,620,620,621,622,624,624,625,626,626,626,626,626,640,640,640,628,628,628,628,628,628,628,627,650,651,652,652,652,652,651,637,637,636,636,635,635,633,633,633,655,655,655,656,656,656,656,657,657,658,660,667,668,669,671,675,677,678,679,680,681,682,682,682,683,683,683,683,683,684,684,684,684,684,684,685,730,730,730,731,731,731,731,732,732,732,732,732,733,733,733,734,735,736,736,737,738,738,739,892,891,891,891,891,892,891,892,891,892,892,892,892,892,892,892,892,892,892,892,892,892,892,892,892,892,892,892,892,892,892,892,892,892,892,892,892,892,892,892,892,892,892,892,892,892,892,892,892,892,892,892,892,892,892,892,892,892,892,893,893,893,893,892,892,892,892,892,892,892,892,892,892,892,892,892,892,892,892,892,892,892,892,892,892,892,893,893,893,892,892,892,892,892,892,892,892,892,892,892,892,891,891,891,891,891,891,891,890,890,890,890,890,889,890,890,891,891,891,890,891,891,890,890,889,889,891,891,890,890,891,891,891,889,889,889,891,889,892,892,892,892,892,892,892,892,892,891,890,2047,2047,2047,2047,2047,2047,2047,2047,0,0,0,0,0,0,0,0,0,0,0,0,0,0,0,0,0,0,0,0,0,0,0,0,0,0,0,0,0,0,0,0,0,0,0,0,0,0,0,0,0,0,0,0,0,0,0,0,0,0,0,0,0,0,0,0,0,0,0,0,0,0,0,0,0,0,0,0,0,0,0,0,0,0,0,0,0,0,0,0,0,0,0,0,0,0,0,0,0,0,0,0,0,0,0,0,0,0,0,0,0,0,0,0,0,0,0,0,0,0,0,0,0,0,0,0,0,0,0,0,0,0,0,0,0,0,0,0,0,0,0,0,0,0,0,0,0,0,0,0,0,0,0,0,0,0,0,0,0,0,0,0,0,0,0,0,0,0,0,0,0,0,0,0,0,0,0,0,0,0,0,0,0,0,0,0,0,0,0,0,0,0,0,0,0,0,0,0,0,0,0,0,0,0,0,0,0,0,0,0,0,0,0,0,0,0,0,0,0,0,0,0,0,0,0,0,0,0,0,0,0,0,0,0,0,0,0,0,0,0,0,0,0,0,0,0,0,0,0,0,0,0,0,0,0,0,0,0,0,0,0,0,0,0,0,0,0,0,0,0,0,0,0,0,0,0,0,0,0,0,0,0,0,0,0,0,0,0,0,0,0,0,0,0,0,0,0,0,0,0,0,0,0,0,0,0,0,0,0,0,0,0,0,0,0,0,0,0,0,0,0,0,0,0,0,0,0,0,0,0,0,0,0,0,0,0,0,0,0,0,0,0,0,0,0,0,0,0,0,0,0,0,0,0,0,0,0,0,0,0,0,0,0,0,0,0,0,0,0,0,0,0,0,0,0,0,0,0,0,0,0,0,0,0,0,0,0,0,0,0,0,0,0,0,0,0,0,0,0,0,0,0,0,0,0,0,0,0,0,0,0,0,0,0,0,0,0,0,0,0,0,0,0,0,0,0,0,0,0,0,0,0,0,0,0,0,0,0,0,0,0,0,0,0,0,0,0,0,0,0,0,0,0,0,0,0,0,0,0,0,0,0,0,0,0,0,0,0,0,0,0,0,0,0,0,0,0,0,0,0,0,0,0,0,0,0,0,0,0,0,0,0,0,0,0,0,0,0,0,0,0,0,0,0,0,0,0,0,0,0,0,0,0,0,0,0,0,0,0,0,0,0,0,0,0,0,0,0,0,0,0,0,0,0,0,0,0,0,0,0,0,0,0,0,0,0,0,0,0,0,0,0,0,0,0,0,0,0,0,0
884,884,884,884,883,884,884,884,884,884,884,884,884,884,884,884,883,883,883,883,883,883,883,883,885,885,885,885,885,885,885,885,885,885,885,885,885,885,885,885,885,885,886,886,886,886,886,886,886,886,885,885,885,885,885,884,883,884,883,883,883,883,884,884,885,885,885,885,884,884,884,884,883,883,884,884,885,885,885,885,885,885,885,885,885,885,885,885,885,885,885,885,885,885,885,885,885,884,885,885,885,2047,2047,2047,2047,2047,2047,2047,2047,2047,2047,2047,2047,2047,2047,2047,2047,2047,2047,2047,2047,2047,706,705,699,699,698,698,698,698,698,697,697,696,696,695,695,694,694,694,693,694,693,693,693,694,693,693,693,693,693,694,694,694,695,694,695,695,696,696,696,696,696,697,697,671,672,674,674,674,673,673,673,672,672,672,672,673,673,649,649,648,649,649,648,648,647,647,647,647,647,646,646,646,646,646,646,646,646,645,645,645,645,645,645,644,643,642,642,642,641,640,640,639,638,638,637,636,635,635,634,634,633,633,632,631,631,630,630,630,630,629,629,629,629,629,628,628,628,629,628,628,628,628,628,628,628,627,628,627,628,628,628,627,627,627,627,627,627,611,611,611,611,610,609,603,601,601,600,618,618,617,616,616,615,614,614,614,613,613,612,612,611,611,612,612,612,612,613,2047,2047,2047,2047,2047,619,621,621,622,622,622,622,624,625,625,626,625,626,625,625,624,624,623,623,623,623,622,623,622,622,621,620,620,620,620,620,621,623,624,625,625,625,625,625,625,625,625,624,623,623,621,620,620,619,619,620,619,620,621,621,621,621,621,621,622,623,624,624,624,625,625,625,625,625,624,624,622,618,622,622,617,617,628,628,628,628,628,628,627,621,620,620,619,620,620,621,622,623,624,625,626,626,626,626,626,641,641,639,639,629,628,628,628,628,628,627,651,651,652,652,652,652,652,652,637,636,635,635,634,634,633,633,655,655,655,656,656,657,657,657,658,658,660,661,665,670,672,675,677,679,680,680,681,682,682,683,683,683,684,684,684,684,684,684,685,685,685,685,731,731,731,731,731,731,732,732,732,732,732,732,733,733,733,734,735,736,736,737,738,738,739,740,891,891,891,891,891,891,892,892,892,892,892,892,892,892,892,892,892,892,892,892,892,892,892,892,892,892,892,892,892,892,892,892,892,892,892,892,892,892,892,892,892,893,893,893,892,892,892,892,892,892,892,892,892,892,892,892,893,892,893,893,893,893,892,892,892,892,892,892,893,892,892,892,892,892,892,892,892,892,892,892,892,892,892,892,892,892,892,892,892,892,892,892,892,892,892,892,892,892,892,891,891,891,891,891,891,891,891,891,890,890,890,889,889,889,890,890,890,890,890,891,891,890,889,889,890,890,890,890,890,889,890,891,889,889,889,889,889,891,891,891,891,891,891,890,892,892,890,890,2047,2047,2047,2047,2047,2047,2047,2047,0,0,0,0,0,0,0,0,0,0,0,0,0,0,0,0,0,0,0,0,0,0,0,0,0,0,0,0,0,0,0,0,0,0,0,0,0,0,0,0,0,0,0,0,0,0,0,0,0,0,0,0,0,0,0,0,0,0,0,0,0,0,0,0,0,0,0,0,0,0,0,0,0,0,0,0,0,0,0,0,0,0,0,0,0,0,0,0,0,0,0,0,0,0,0,0,0,0,0,0,0,0,0,0,0,0,0,0,0,0,0,0,0,0,0,0,0,0,0,0,0,0,0,0,0,0,0,0,0,0,0,0,0,0,0,0,0,0,0,0,0,0,0,0,0,0,0,0,0,0,0,0,0,0,0,0,0,0,0,0,0,0,0,0,0,0,0,0,0,0,0,0,0,0,0,0,0,0,0,0,0,0,0,0,0,0,0,0,0,0,0,0,0,0,0,0,0,0,0,0,0,0,0,0,0,0,0,0,0,0,0,0,0,0,0,0,0,0,0,0,0,0,0,0,0,0,0,0,0,0,0,0,0,0,0,0,0,0,0,0,0,0,0,0,0,0,0,0,0,0,0,0,0,0,0,0,0,0,0,0,0,0,0,0,0,0,0,0,0,0,0,0,0,0,0,0,0,0,0,0,0,0,0,0,0,0,0,0,0,0,0,0,0,0,0,0,0,0,0,0,0,0,0,0,0,0,0,0,0,0,0,0,0,0,0,0,0,0,0,0,0,0,0,0,0,0,0,0,0,0,0,0,0,0,0,0,0,0,0,0,0,0,0,0,0,0,0,0,0,0,0,0,0,0,0,0,0,0,0,0,0,0,0,0,0,0,0,0,0,0,0,0,0,0,0,0,0,0,0,0,0,0,0,0,0,0,0,0,0,0,0,0,0,0,0,0,0,0,0,0,0,0,0,0,0,0,0,0,0,0,0,0,0,0,0,0,0,0,0,0,0,0,0,0,0,0,0,0,0,0,0,0,0,0,0,0,0,0,0,0,0,0,0,0,0,0,0,0,0,0,0,0,0,0,0,0,0,0,0,0,0,0,0,0,0,0,0,0,0,0,0,0,0,0,0,0,0,0,0,0,0,0,0,0,0,0,0,0,0,0,0,0,0,0,0,0,0,0,0,0,0,0,0,0,0,0,0,0,0,0,0,0,0,0,0,0,0,0,0,0,0,0,0,0,0,0,0,0,0,0,0,0,0,0,0,0,0,0,0,0,0,0,0,0,0,0,0,0,0,0
885,884,884,884,884,884,884,884,884,884,885,884,884,884,884,884,883,883,883,884,883,883,883,883,884,885,885,885,885,885,885,885,885,885,885,885,885,885,885,885,885,885,886,886,886,886,886,886,886,886,885,884,885,885,884,884,883,884,883,883,883,883,883,884,885,885,885,885,884,884,884,884,883,884,884,884,885,885,885,885,885,885,885,885,885,885,885,885,885,885,885,885,885,885,885,885,885,885,885,885,885,2047,2047,2047,2047,2047,2047,2047,2047,2047,2047,2047,2047,2047,2047,2047,2047,2047,2047,2047,2047,2047,706,705,701,700,700,699,698,698,698,697,697,697,696,696,695,694,694,694,694,694,694,694,694,694,694,694,694,694,694,694,694,694,695,695,695,695,696,696,696,697,697,697,669,670,671,674,675,675,674,674,673,673,673,672,673,673,673,650,650,649,650,649,649,648,648,647,647,647,647,647,646,646,646,646,646,646,646,646,645,646,645,645,645,644,643,642,642,642,641,641,640,639,638,638,637,636,635,634,634,634,633,633,632,631,630,630,630,630,629,629,629,629,628,629,629,628,628,629,628,628,628,628,628,628,628,627,628,627,628,628,628,627,627,628,628,628,628,611,611,611,611,611,610,603,601,601,600,618,618,617,616,615,615,614,613,613,613,612,612,612,611,611,612,613,612,613,2047,2047,630,2047,2047,2047,2047,621,621,622,622,622,623,624,625,625,625,625,625,625,624,624,623,622,622,622,623,622,623,623,623,622,621,621,621,621,620,622,623,624,625,625,625,626,625,625,625,624,624,624,623,621,620,619,619,620,620,619,620,621,621,621,621,621,621,624,628,626,626,626,626,626,626,626,625,624,623,622,620,622,621,621,621,628,628,628,628,627,627,625,621,620,620,619,620,620,620,621,622,623,625,626,626,626,626,626,639,639,630,631,630,629,629,628,627,627,627,651,651,651,651,652,652,652,652,637,636,635,635,634,634,634,633,632,656,656,656,656,657,657,658,658,659,660,661,663,671,673,675,677,679,680,680,681,682,682,683,684,684,684,684,684,684,684,685,685,685,685,685,731,732,731,732,732,732,732,732,732,732,732,732,733,733,734,734,735,736,737,737,738,739,740,891,891,891,891,891,891,891,892,891,892,892,892,892,892,892,892,892,892,892,892,892,892,892,892,892,892,892,892,892,892,892,892,892,892,892,892,892,892,892,892,892,892,892,892,892,892,892,892,892,892,892,892,892,892,892,892,892,892,892,892,893,893,893,893,893,892,893,893,892,893,892,892,892,892,892,892,892,892,892,892,892,892,892,892,892,892,892,892,892,892,892,892,892,892,892,892,892,892,892,891,891,891,891,891,891,891,891,892,892,890,890,890,889,889,889,891,890,891,890,890,891,891,890,889,890,889,890,890,890,890,890,890,891,890,889,889,889,889,891,891,891,890,891,891,890,891,892,890,890,2047,2047,2047,2047,2047,2047,2047,2047,0,0,0,0,0,0,0,0,0,0,0,0,0,0,0,0,0,0,0,0,0,0,0,0,0,0,0,0,0,0,0,0,0,0,0,0,0,0,0,0,0,0,0,0,0,0,0,0,0,0,0,0,0,0,0,0,0,0,0,0,0,0,0,0,0,0,0,0,0,0,0,0,0,0,0,0,0,0,0,0,0,0,0,0,0,0,0,0,0,0,0,0,0,0,0,0,0,0,0,0,0,0,0,0,0,0,0,0,0,0,0,0,0,0,0,0,0,0,0,0,0,0,0,0,0,0,0,0,0,0,0,0,0,0,0,0,0,0,0,0,0,0,0,0,0,0,0,0,0,0,0,0,0,0,0,0,0,0,0,0,0,0,0,0,0,0,0,0,0,0,0,0,0,0,0,0,0,0,0,0,0,0,0,0,0,0,0,0,0,0,0,0,0,0,0,0,0,0,0,0,0,0,0,0,0,0,0,0,0,0,0,0,0,0,0,0,0,0,0,0,0,0,0,0,0,0,0,0,0,0,0,0,0,0,0,0,0,0,0,0,0,0,0,0,0,0,0,0,0,0,0,0,0,0,0,0,0,0,0,0,0,0,0,0,0,0,0,0,0,0,0,0,0,0,0,0,0,0,0,0,0,0,0,0,0,0,0,0,0,0,0,0,0,0,0,0,0,0,0,0,0,0,0,0,0,0,0,0,0,0,0,0,0,0,0,0,0,0,0,0,0,0,0,0,0,0,0,0,0,0,0,0,0,0,0,0,0,0,0,0,0,0,0,0,0,0,0,0,0,0,0,0,0,0,0,0,0,0,0,0,0,0,0,0,0,0,0,0,0,0,0,0,0,0,0,0,0,0,0,0,0,0,0,0,0,0,0,0,0,0,0,0,0,0,0,0,0,0,0,0,0,0,0,0,0,0,0,0,0,0,0,0,0,0,0,0,0,0,0,0,0,0,0,0,0,0,0,0,0,0,0,0,0,0,0,0,0,0,0,0,0,0,0,0,0,0,0,0,0,0,0,0,0,0,0,0,0,0,0,0,0,0,0,0,0,0,0,0,0,0,0,0,0,0,0,0,0,0,0,0,0,0,0,0,0,0,0,0,0,0,0,0,0,0,0,0,0,0,0,0,0,0,0,0,0,0,0,0,0,0,0,0,0,0,0,0,0,0,0,0,0,0,0,0,0,0,0,0,0,0,0,0,0,0,0,0,0,0,0,0,0,0,0,0,0,0,0,0,0,0
884,884,884,884,884,884,884,884,884,884,884,884,884,884,884,884,883,883,883,884,883,883,883,883,884,884,885,884,885,885,885,885,885,885,885,885,885,885,885,885,885,885,886,886,886,886,886,886,886,886,885,885,885,885,884,884,884,884,883,884,884,883,884,884,885,885,885,885,884,884,884,885,884,884,884,884,884,885,884,885,885,884,885,885,885,885,885,885,885,885,885,885,885,885,885,886,885,885,886,886,2047,2047,2047,2047,2047,2047,2047,2047,2047,2047,2047,2047,2047,2047,2047,2047,2047,2047,2047,2047,2047,705,706,705,702,701,701,700,699,698,698,697,697,697,697,696,696,694,694,694,694,694,694,694,694,694,694,694,694,694,694,694,694,695,695,695,696,696,696,696,697,697,697,697,669,670,671,673,674,675,675,674,674,673,673,673,673,673,674,650,650,650,650,650,649,648,648,648,647,647,647,646,646,646,646,646,646,646,646,646,646,646,645,645,645,644,643,642,642,642,641,640,640,639,638,638,637,636,635,634,634,633,633,633,632,631,630,630,630,630,629,629,629,629,628,628,628,628,628,629,628,629,629,628,628,628,628,627,628,627,628,628,628,627,627,627,627,628,628,611,611,611,611,611,610,603,601,601,600,600,617,616,615,614,614,614,613,613,612,612,612,612,611,612,613,613,612,612,2047,633,630,630,629,629,622,622,621,622,622,622,622,623,625,625,625,625,625,625,624,624,623,623,622,622,623,623,623,623,622,621,621,621,621,621,620,621,622,623,625,625,625,625,625,625,624,624,623,623,622,621,621,621,621,621,621,620,621,621,622,622,621,622,622,627,629,628,627,627,626,625,626,625,624,624,624,622,621,622,621,621,623,625,627,628,627,627,627,622,620,620,620,619,620,619,620,620,622,623,625,626,626,626,626,626,633,633,630,632,630,629,629,628,628,627,627,650,650,650,651,651,652,652,652,652,635,635,635,634,634,634,633,632,656,656,656,657,657,657,658,659,659,660,661,662,662,672,674,676,678,679,680,682,683,683,684,684,684,685,685,684,685,685,685,685,685,685,685,732,732,731,732,732,732,732,732,732,732,733,733,733,733,734,734,735,736,737,737,739,739,740,891,891,891,891,891,891,891,892,892,892,892,892,892,892,892,892,892,892,892,892,892,892,892,892,891,892,892,892,892,892,892,892,892,892,892,892,892,892,892,892,892,892,892,892,892,892,892,892,892,892,892,892,892,892,892,892,892,892,892,892,892,892,892,892,892,892,893,893,893,893,893,892,892,892,892,892,892,892,892,892,892,892,892,892,892,892,892,892,892,892,892,892,892,892,892,892,892,892,892,891,891,891,891,891,891,891,891,892,892,891,890,890,890,889,890,890,890,891,890,891,891,891,890,890,890,890,890,890,890,890,890,890,890,891,889,889,890,889,891,890,890,890,891,890,890,890,892,890,890,2047,2047,2047,2047,2047,2047,2047,2047,0,0,0,0,0,0,0,0,0,0,0,0,0,0,0,0,0,0,0,0,0,0,0,0,0,0,0,0,0,0,0,0,0,0,0,0,0,0,0,0,0,0,0,0,0,0,0,0,0,0,0,0,0,0,0,0,0,0,0,0,0,0,0,0,0,0,0,0,0,0,0,0,0,0,0,0,0,0,0,0,0,0,0,0,0,0,0,0,0,0,0,0,0,0,0,0,0,0,0,0,0,0,0,0,0,0,0,0,0,0,0,0,0,0,0,0,0,0,0,0,0,0,0,0,0,0,0,0,0,0,0,0,0,0,0,0,0,0,0,0,0,0,0,0,0,0,0,0,0,0,0,0,0,0,0,0,0,0,0,0,0,0,0,0,0,0,0,0,0,0,0,0,0,0,0,0,0,0,0,0,0,0,0,0,0,0,0,0,0,0,0,0,0,0,0,0,0,0,0,0,0,0,0,0,0,0,0,0,0,0,0,0,0,0,0,0,0,0,0,0,0,0,0,0,0,0,0,0,0,0,0,0,0,0,0,0,0,0,0,0,0,0,0,0,0,0,0,0,0,0,0,0,0,0,0,0,0,0,0,0,0,0,0,0,0,0,0,0,0,0,0,0,0,0,0,0,0,0,0,0,0,0,0,0,0,0,0,0,0,0,0,0,0,0,0,0,0,0,0,0,0,0,0,0,0,0,0,0,0,0,0,0,0,0,0,0,0,0,0,0,0,0,0,0,0,0,0,0,0,0,0,0,0,0,0,0,0,0,0,0,0,0,0,0,0,0,0,0,0,0,0,0,0,0,0,0,0,0,0,0,0,0,0,0,0,0,0,0,0,0,0,0,0,0,0,0,0,0,0,0,0,0,0,0,0,0,0,0,0,0,0,0,0,0,0,0,0,0,0,0,0,0,0,0,0,0,0,0,0,0,0,0,0,0,0,0,0,0,0,0,0,0,0,0,0,0,0,0,0,0,0,0,0,0,0,0,0,0,0,0,0,0,0,0,0,0,0,0,0,0,0,0,0,0,0,0,0,0,0,0,0,0,0,0,0,0,0,0,0,0,0,0,0,0,0,0,0,0,0,0,0,0,0,0,0,0,0,0,0,0,0,0,0,0,0,0,0,0,0,0,0,0,0,0,0,0,0,0,0,0,0,0,0,0,0,0,0,0,0,0,0,0,0,0,0,0,0,0,0,0,0,0,0,0,0,0,0,0,0,0,0,0,0,0,0,0,0,0,0,0
884,884,884,883,883,884,884,884,884,884,885,884,884,884,884,884,883,883,882,883,883,883,883,883,884,884,884,883,884,885,885,885,885,885,885,885,885,885,885,885,885,885,886,886,886,886,886,886,886,886,885,884,885,885,884,884,883,884,883,884,884,884,884,884,885,884,885,885,884,884,884,884,884,884,884,884,885,885,885,885,885,885,885,885,885,885,885,884,885,885,885,885,885,885,885,886,885,885,885,886,2047,2047,2047,2047,2047,2047,2047,2047,2047,2047,2047,2047,2047,2047,2047,2047,2047,2047,2047,2047,2047,706,706,705,703,701,700,699,698,698,698,697,697,697,696,696,696,695,694,694,694,694,694,694,694,694,694,694,694,694,694,695,695,695,696,696,696,696,697,697,697,698,698,698,669,670,671,673,673,675,676,675,674,674,674,673,673,673,673,649,650,650,650,650,649,649,648,648,648,647,647,647,646,646,647,646,646,646,646,646,646,646,645,645,645,644,643,643,642,642,641,641,640,639,638,638,637,636,635,634,634,634,633,633,632,631,630,630,630,629,629,629,629,629,628,628,628,628,628,628,628,628,628,628,628,628,628,627,628,627,628,628,627,627,627,627,627,627,627,610,610,611,610,610,610,603,602,601,601,601,617,616,615,614,614,614,613,613,612,611,611,612,611,611,612,612,612,612,613,633,633,631,630,630,630,621,621,622,622,622,622,624,626,625,626,625,625,625,624,624,624,623,622,622,623,623,623,623,622,621,621,621,621,621,621,621,622,623,623,624,625,625,625,625,624,624,623,623,622,621,621,621,621,621,621,621,621,621,622,622,622,622,622,629,630,629,628,628,627,626,626,625,624,625,625,624,621,622,622,622,623,623,626,626,627,624,622,621,620,620,620,619,619,619,619,620,621,622,625,626,627,627,627,635,633,634,632,632,630,629,629,628,627,627,627,649,649,650,650,651,652,652,652,652,652,635,634,634,634,633,633,632,656,656,656,657,657,658,659,659,660,660,661,662,662,671,673,676,679,680,681,682,683,684,685,685,685,685,685,685,685,685,685,685,685,685,732,732,732,731,732,732,732,732,732,732,733,733,733,733,733,734,734,735,736,738,738,740,740,890,891,891,891,891,891,892,891,892,892,892,892,892,892,892,892,892,892,892,892,892,892,892,892,892,892,892,892,892,892,892,893,893,892,892,892,892,892,892,892,892,892,892,892,892,892,892,892,892,892,892,892,892,892,892,892,892,892,892,892,892,892,892,892,892,893,892,892,892,893,893,892,892,892,892,892,892,892,892,892,892,892,892,892,892,892,892,892,892,893,892,892,892,892,892,892,892,892,892,892,891,891,891,891,891,891,891,891,892,892,891,890,890,890,890,890,890,890,891,890,891,890,890,890,890,889,890,890,891,890,890,890,889,890,891,889,889,890,889,890,890,890,890,890,890,890,892,892,892,891,2047,2047,2047,2047,2047,2047,2047,2047,0,0,0,0,0,0,0,0,0,0,0,0,0,0,0,0,0,0,0,0,0,0,0,0,0,0,0,0,0,0,0,0,0,0,0,0,0,0,0,0,0,0,0,0,0,0,0,0,0,0,0,0,0,0,0,0,0,0,0,0,0,0,0,0,0,0,0,0,0,0,0,0,0,0,0,0,0,0,0,0,0,0,0,0,0,0,0,0,0,0,0,0,0,0,0,0,0,0,0,0,0,0,0,0,0,0,0,0,0,0,0,0,0,0,0,0,0,0,0,0,0,0,0,0,0,0,0,0,0,0,0,0,0,0,0,0,0,0,0,0,0,0,0,0,0,0,0,0,0,0,0,0,0,0,0,0,0,0,0,0,0,0,0,0,0,0,0,0,0,0,0,0,0,0,0,0,0,0,0,0,0,0,0,0,0,0,0,0,0,0,0,0,0,0,0,0,0,0,0,0,0,0,0,0,0,0,0,0,0,0,0,0,0,0,0,0,0,0,0,0,0,0,0,0,0,0,0,0,0,0,0,0,0,0,0,0,0,0,0,0,0,0,0,0,0,0,0,0,0,0,0,0,0,0,0,0,0,0,0,0,0,0,0,0,0,0,0,0,0,0,0,0,0,0,0,0,0,0,0,0,0,0,0,0,0,0,0,0,0,0,0,0,0,0,0,0,0,0,0,0,0,0,0,0,0,0,0,0,0,0,0,0,0,0,0,0,0,0,0,0,0,0,0,0,0,0,0,0,0,0,0,0,0,0,0,0,0,0,0,0,0,0,0,0,0,0,0,0,0,0,0,0,0,0,0,0,0,0,0,0,0,0,0,0,0,0,0,0,0,0,0,0,0,0,0,0,0,0,0,0,0,0,0,0,0,0,0,0,0,0,0,0,0,0,0,0,0,0,0,0,0,0,0,0,0,0,0,0,0,0,0,0,0,0,0,0,0,0,0,0,0,0,0,0,0,0,0,0,0,0,0,0,0,0,0,0,0,0,0,0,0,0,0,0,0,0,0,0,0,0,0,0,0,0,0,0,0,0,0,0,0,0,0,0,0,0,0,0,0,0,0,0,0,0,0,0,0,0,0,0,0,0,0,0,0,0,0,0,0,0,0,0,0,0,0,0,0,0,0,0,0,0,0,0,0,0,0,0,0,0,0,0,0,0,0,0,0,0,0,0,0,0,0,0,0,0,0,0,0,0,0,0,0,0,0,0,0,0,0,0,0,0,0,0,0,0,0,0,0,0
884,883,884,883,883,884,884,884,884,885,885,884,884,884,884,884,883,883,882,883,883,883,883,883,883,883,883,883,884,884,884,884,885,885,885,885,885,885,885,885,885,885,885,886,886,886,886,886,886,885,885,884,885,884,884,884,883,884,883,884,884,884,884,884,885,885,885,885,885,885,885,885,884,885,884,884,885,885,885,885,885,885,885,885,885,885,885,885,885,885,885,885,885,885,885,885,885,885,885,885,2047,2047,2047,2047,2047,2047,2047,2047,2047,2047,2047,2047,2047,2047,2047,2047,2047,2047,2047,2047,2047,707,704,703,702,702,701,699,698,698,698,697,697,697,697,696,696,695,695,694,694,694,694,695,694,694,694,694,694,695,695,695,696,696,696,696,697,697,697,697,697,698,698,698,698,670,671,673,675,676,677,676,675,674,674,673,674,673,650,650,650,650,650,650,649,649,649,649,648,648,648,647,647,647,647,647,646,647,646,646,646,646,645,645,645,644,644,643,642,642,642,641,640,639,638,638,637,636,635,635,634,634,633,632,632,631,630,630,629,629,629,629,629,629,628,628,629,629,629,628,628,628,628,628,628,628,628,627,628,627,628,628,628,627,627,627,627,627,627,610,610,610,610,610,609,604,602,602,601,601,615,615,614,614,614,613,613,613,612,611,611,611,611,611,612,612,612,612,634,633,633,632,630,630,2047,621,621,623,622,622,623,625,626,625,626,625,625,625,625,624,624,623,622,622,623,623,623,623,623,622,623,624,623,622,622,622,622,623,623,623,624,625,625,625,624,624,623,623,622,621,621,621,622,623,623,621,622,622,622,622,622,622,625,628,629,629,628,628,627,627,626,625,624,624,625,624,624,624,623,624,624,624,625,626,627,627,621,621,620,620,620,619,619,619,619,620,621,623,625,626,627,628,628,629,630,630,630,630,630,629,629,628,627,627,627,650,650,649,650,651,652,652,652,652,652,653,634,634,633,633,632,632,631,657,657,658,658,658,659,660,660,660,661,661,661,667,673,676,679,681,682,683,684,685,685,685,685,686,686,685,685,685,686,686,686,685,733,732,731,732,732,732,732,732,732,732,733,733,733,733,733,734,735,736,737,739,739,740,740,891,891,891,891,891,891,892,891,892,891,891,892,892,892,892,892,892,892,892,892,892,892,892,892,892,892,892,892,892,892,892,893,893,892,892,892,892,892,892,892,892,892,892,892,892,892,892,892,892,892,891,892,892,892,892,892,892,892,892,892,892,892,892,892,892,892,892,892,892,893,892,892,892,892,892,892,892,892,892,892,892,892,892,892,892,892,892,892,892,892,892,892,892,892,892,892,892,892,892,891,890,890,889,890,890,890,891,891,891,892,891,891,890,890,890,890,890,890,891,891,891,889,890,889,889,890,890,890,890,890,890,889,890,890,891,889,890,890,889,890,889,890,890,890,890,890,891,891,891,891,2047,2047,2047,2047,2047,2047,2047,2047,0,0,0,0,0,0,0,0,0,0,0,0,0,0,0,0,0,0,0,0,0,0,0,0,0,0,0,0,0,0,0,0,0,0,0,0,0,0,0,0,0,0,0,0,0,0,0,0,0,0,0,0,0,0,0,0,0,0,0,0,0,0,0,0,0,0,0,0,0,0,0,0,0,0,0,0,0,0,0,0,0,0,0,0,0,0,0,0,0,0,0,0,0,0,0,0,0,0,0,0,0,0,0,0,0,0,0,0,0,0,0,0,0,0,0,0,0,0,0,0,0,0,0,0,0,0,0,0,0,0,0,0,0,0,0,0,0,0,0,0,0,0,0,0,0,0,0,0,0,0,0,0,0,0,0,0,0,0,0,0,0,0,0,0,0,0,0,0,0,0,0,0,0,0,0,0,0,0,0,0,0,0,0,0,0,0,0,0,0,0,0,0,0,0,0,0,0,0,0,0,0,0,0,0,0,0,0,0,0,0,0,0,0,0,0,0,0,0,0,0,0,0,0,0,0,0,0,0,0,0,0,0,0,0,0,0,0,0,0,0,0,0,0,0,0,0,0,0,0,0,0,0,0,0,0,0,0,0,0,0,0,0,0,0,0,0,0,0,0,0,0,0,0,0,0,0,0,0,0,0,0,0,0,0,0,0,0,0,0,0,0,0,0,0,0,0,0,0,0,0,0,0,0,0,0,0,0,0,0,0,0,0,0,0,0,0,0,0,0,0,0,0,0,0,0,0,0,0,0,0,0,0,0,0,0,0,0,0,0,0,0,0,0,0,0,0,0,0,0,0,0,0,0,0,0,0,0,0,0,0,0,0,0,0,0,0,0,0,0,0,0,0,0,0,0,0,0,0,0,0,0,0,0,0,0,0,0,0,0,0,0,0,0,0,0,0,0,0,0,0,0,0,0,0,0,0,0,0,0,0,0,0,0,0,0,0,0,0,0,0,0,0,0,0,0,0,0,0,0,0,0,0,0,0,0,0,0,0,0,0,0,0,0,0,0,0,0,0,0,0,0,0,0,0,0,0,0,0,0,0,0,0,0,0,0,0,0,0,0,0,0,0,0,0,0,0,0,0,0,0,0,0,0,0,0,0,0,0,0,0,0,0,0,0,0,0,0,0,0,0,0,0,0,0,0,0,0,0,0,0,0,0,0,0,0,0,0,0,0,0,0,0,0,0,0,0,0,0,0,0,0,0,0,0,0,0,0,0,0,0,0,0,0,0,0,0,0,0,0,0
884,883,884,884,884,884,884,884,884,884,884,884,884,884,884,883,883,883,882,883,883,883,883,883,883,883,883,883,884,884,884,884,885,885,885,885,885,884,885,885,885,885,885,885,886,886,886,886,886,885,885,884,884,884,884,884,883,883,883,883,884,884,884,884,885,885,885,885,885,885,885,885,885,885,885,885,885,885,885,885,885,885,885,885,885,885,885,885,885,885,885,885,885,885,885,885,885,885,885,885,885,2047,2047,2047,2047,2047,2047,2047,2047,2047,2047,2047,2047,2047,2047,2047,2047,2047,2047,2047,708,707,704,703,702,701,700,699,698,698,698,697,697,697,697,697,696,696,695,695,695,695,695,695,694,695,695,695,695,695,695,696,696,696,697,697,697,697,697,697,698,698,698,698,698,669,669,677,677,678,678,677,676,676,676,675,677,677,650,650,651,650,650,650,650,649,649,649,649,649,648,648,647,647,648,647,647,647,646,646,646,646,645,645,645,644,644,643,642,642,642,641,640,639,638,638,637,636,635,635,634,634,633,632,632,631,630,629,629,629,629,629,629,629,628,628,628,628,628,628,628,627,628,627,628,628,628,627,628,627,628,628,627,627,627,627,626,627,626,626,610,610,610,610,609,608,603,602,601,602,614,614,614,613,613,613,612,612,611,610,610,611,610,611,612,612,611,611,634,633,633,632,630,630,626,621,621,623,623,622,625,626,626,626,626,625,626,625,625,625,624,623,622,622,623,623,623,623,625,624,624,624,624,623,622,622,622,623,622,623,623,624,624,624,624,624,624,623,622,621,621,621,621,621,622,621,621,622,622,622,622,623,625,628,629,629,628,628,627,627,626,626,625,626,625,625,625,625,624,625,624,624,624,622,642,642,621,620,620,620,620,619,619,619,619,620,621,622,626,627,627,628,629,629,629,630,630,630,629,629,628,628,627,627,650,649,649,649,650,651,652,652,652,652,652,653,633,634,633,633,632,632,631,656,656,658,658,659,660,660,660,660,661,662,662,672,674,677,680,681,683,684,685,686,686,686,686,687,687,686,686,686,687,687,686,686,732,732,732,732,732,732,732,732,732,733,733,733,733,733,734,735,736,736,737,739,739,740,740,891,892,892,892,892,892,892,891,892,891,891,891,892,892,892,892,892,892,892,892,892,892,892,892,892,892,892,892,892,892,892,893,893,892,892,892,892,892,892,892,892,892,892,893,892,892,892,892,892,892,891,891,891,892,892,892,892,892,892,892,892,892,892,892,892,892,892,892,892,892,892,892,892,892,892,892,893,892,892,892,892,892,892,892,892,892,892,892,892,892,892,892,892,892,892,892,892,892,892,891,890,890,889,890,890,891,891,891,891,892,892,892,892,890,890,890,890,890,891,891,891,891,891,891,890,890,890,890,890,891,890,889,889,890,890,889,889,890,889,889,889,890,889,890,890,890,891,891,891,892,2047,2047,2047,2047,2047,2047,2047,2047,0,0,0,0,0,0,0,0,0,0,0,0,0,0,0,0,0,0,0,0,0,0,0,0,0,0,0,0,0,0,0,0,0,0,0,0,0,0,0,0,0,0,0,0,0,0,0,0,0,0,0,0,0,0,0,0,0,0,0,0,0,0,0,0,0,0,0,0,0,0,0,0,0,0,0,0,0,0,0,0,0,0,0,0,0,0,0,0,0,0,0,0,0,0,0,0,0,0,0,0,0,0,0,0,0,0,0,0,0,0,0,0,0,0,0,0,0,0,0,0,0,0,0,0,0,0,0,0,0,0,0,0,0,0,0,0,0,0,0,0,0,0,0,0,0,0,0,0,0,0,0,0,0,0,0,0,0,0,0,0,0,0,0,0,0,0,0,0,0,0,0,0,0,0,0,0,0,0,0,0,0,0,0,0,0,0,0,0,0,0,0,0,0,0,0,0,0,0,0,0,0,0,0,0,0,0,0,0,0,0,0,0,0,0,0,0,0,0,0,0,0,0,0,0,0,0,0,0,0,0,0,0,0,0,0,0,0,0,0,0,0,0,0,0,0,0,0,0,0,0,0,0,0,0,0,0,0,0,0,0,0,0,0,0,0,0,0,0,0,0,0,0,0,0,0,0,0,0,0,0,0,0,0,0,0,0,0,0,0,0,0,0,0,0,0,0,0,0,0,0,0,0,0,0,0,0,0,0,0,0,0,0,0,0,0,0,0,0,0,0,0,0,0,0,0,0,0,0,0,0,0,0,0,0,0,0,0,0,0,0,0,0,0,0,0,0,0,0,0,0,0,0,0,0,0,0,0,0,0,0,0,0,0,0,0,0,0,0,0,0,0,0,0,0,0,0,0,0,0,0,0,0,0,0,0,0,0,0,0,0,0,0,0,0,0,0,0,0,0,0,0,0,0,0,0,0,0,0,0,0,0,0,0,0,0,0,0,0,0,0,0,0,0,0,0,0,0,0,0,0,0,0,0,0,0,0,0,0,0,0,0,0,0,0,0,0,0,0,0,0,0,0,0,0,0,0,0,0,0,0,0,0,0,0,0,0,0,0,0,0,0,0,0,0,0,0,0,0,0,0,0,0,0,0,0,0,0,0,0,0,0,0,0,0,0,0,0,0,0,0,0,0,0,0,0,0,0,0,0,0,0,0,0,0,0,0,0,0,0,0,0,0,0,0,0,0,0,0,0,0,0,0,0,0,0,0,0,0,0,0,0,0,0,0,0,0,0,0,0,0
884,884,884,884,883,884,883,884,884,884,884,884,884,884,884,884,883,883,883,883,883,883,883,883,883,883,883,883,884,884,884,884,885,885,885,885,885,885,885,885,885,885,885,885,886,886,886,886,886,886,885,885,885,885,884,884,883,884,883,884,884,884,884,885,885,885,885,885,885,885,885,885,885,885,885,885,885,885,885,885,885,885,885,885,885,885,885,885,885,885,885,885,885,885,885,885,885,885,885,885,2047,2047,2047,2047,2047,2047,2047,2047,2047,2047,2047,2047,2047,2047,2047,2047,2047,2047,2047,2047,2047,707,706,703,702,701,701,699,698,698,698,697,697,697,697,696,696,696,695,695,695,695,695,695,695,695,695,695,695,696,696,696,697,697,697,697,697,697,698,698,699,699,699,699,699,699,699,699,678,678,679,678,677,677,677,676,678,678,651,651,652,651,651,650,650,650,649,649,649,649,649,648,648,648,648,647,647,647,647,646,646,646,645,645,645,644,644,643,642,642,642,641,641,639,638,637,636,636,635,634,634,634,633,632,632,631,630,629,629,629,629,629,628,628,628,628,628,628,628,628,628,628,628,628,628,628,628,628,628,628,628,628,628,627,627,627,627,627,627,627,611,611,611,611,610,610,603,602,614,614,614,614,613,613,613,613,612,612,612,611,611,612,612,613,614,613,612,612,612,633,633,632,630,626,626,626,621,621,624,623,626,627,626,626,625,625,625,625,625,625,624,623,622,623,623,623,623,624,625,624,624,625,624,624,623,622,622,622,622,622,622,623,624,624,623,623,623,622,622,621,620,621,621,621,621,621,621,622,623,623,623,623,626,629,629,629,628,628,627,627,627,626,626,626,625,625,625,625,624,625,624,623,622,622,643,642,642,620,620,620,620,619,619,619,620,620,620,622,623,627,627,628,629,629,629,629,629,629,629,629,628,628,628,627,649,649,649,649,650,651,652,652,652,652,653,653,653,633,633,632,632,631,631,656,656,657,658,659,659,660,660,661,661,662,662,664,679,679,681,682,683,685,686,686,687,687,687,687,687,687,687,687,687,687,687,687,732,732,732,732,732,733,733,733,733,733,733,733,733,733,734,735,736,737,738,739,740,740,740,891,892,892,892,892,892,892,892,892,892,891,891,892,892,892,892,892,892,892,892,892,892,892,892,892,892,892,892,892,892,892,892,892,892,892,892,892,892,892,892,892,892,892,893,892,892,892,892,892,891,891,891,891,892,892,892,892,892,893,892,893,892,892,892,892,892,892,892,892,892,892,892,892,892,892,892,893,892,892,892,892,892,892,892,892,892,892,892,892,892,892,892,892,891,892,892,892,891,890,890,889,890,889,890,890,890,891,891,891,892,892,892,892,891,890,890,890,890,889,891,891,891,891,891,891,891,891,890,890,890,890,889,889,889,889,889,889,889,889,889,889,889,889,889,890,890,891,891,892,891,2047,2047,2047,2047,2047,2047,2047,2047,0,0,0,0,0,0,0,0,0,0,0,0,0,0,0,0,0,0,0,0,0,0,0,0,0,0,0,0,0,0,0,0,0,0,0,0,0,0,0,0,0,0,0,0,0,0,0,0,0,0,0,0,0,0,0,0,0,0,0,0,0,0,0,0,0,0,0,0,0,0,0,0,0,0,0,0,0,0,0,0,0,0,0,0,0,0,0,0,0,0,0,0,0,0,0,0,0,0,0,0,0,0,0,0,0,0,0,0,0,0,0,0,0,0,0,0,0,0,0,0,0,0,0,0,0,0,0,0,0,0,0,0,0,0,0,0,0,0,0,0,0,0,0,0,0,0,0,0,0,0,0,0,0,0,0,0,0,0,0,0,0,0,0,0,0,0,0,0,0,0,0,0,0,0,0,0,0,0,0,0,0,0,0,0,0,0,0,0,0,0,0,0,0,0,0,0,0,0,0,0,0,0,0,0,0,0,0,0,0,0,0,0,0,0,0,0,0,0,0,0,0,0,0,0,0,0,0,0,0,0,0,0,0,0,0,0,0,0,0,0,0,0,0,0,0,0,0,0,0,0,0,0,0,0,0,0,0,0,0,0,0,0,0,0,0,0,0,0,0,0,0,0,0,0,0,0,0,0,0,0,0,0,0,0,0,0,0,0,0,0,0,0,0,0,0,0,0,0,0,0,0,0,0,0,0,0,0,0,0,0,0,0,0,0,0,0,0,0,0,0,0,0,0,0,0,0,0,0,0,0,0,0,0,0,0,0,0,0,0,0,0,0,0,0,0,0,0,0,0,0,0,0,0,0,0,0,0,0,0,0,0,0,0,0,0,0,0,0,0,0,0,0,0,0,0,0,0,0,0,0,0,0,0,0,0,0,0,0,0,0,0,0,0,0,0,0,0,0,0,0,0,0,0,0,0,0,0,0,0,0,0,0,0,0,0,0,0,0,0,0,0,0,0,0,0,0,0,0,0,0,0,0,0,0,0,0,0,0,0,0,0,0,0,0,0,0,0,0,0,0,0,0,0,0,0,0,0,0,0,0,0,0,0,0,0,0,0,0,0,0,0,0,0,0,0,0,0,0,0,0,0,0,0,0,0,0,0,0,0,0,0,0,0,0,0,0,0,0,0,0,0,0,0,0,0,0,0,0,0,0,0,0,0,0,0,0,0,0,0,0,0,0,0,0,0,0,0,0,0,0,0,0,0,0,0,0,0,0,0,0,0,0,0,0,0,0,0,0,0,0
883,883,884,884,883,884,884,884,884,884,884,884,883,883,884,883,883,883,883,883,883,883,883,883,883,883,883,883,884,884,884,884,884,884,885,884,884,884,885,885,884,885,885,885,885,886,886,885,886,885,885,885,885,884,884,884,884,884,883,884,884,884,884,884,885,885,885,885,885,885,885,885,885,885,885,885,885,885,885,885,885,885,885,885,885,885,885,885,885,885,885,885,885,885,885,885,885,885,884,884,2047,2047,2047,2047,2047,2047,2047,2047,2047,2047,2047,2047,2047,2047,2047,2047,2047,2047,2047,2047,2047,2047,706,706,702,701,700,699,699,698,698,698,697,697,697,697,697,696,696,696,696,695,695,695,695,696,696,696,696,696,697,697,697,697,697,698,698,698,698,699,699,700,700,700,700,700,700,701,679,679,679,678,678,677,677,677,678,679,652,651,652,651,651,650,650,649,649,649,649,649,649,648,648,648,648,648,648,648,647,647,646,646,646,645,645,645,644,643,643,642,642,641,640,639,638,637,636,636,635,634,634,634,633,632,632,631,630,630,629,629,629,629,628,628,628,628,628,628,628,628,628,628,628,628,628,628,628,628,628,627,628,628,628,627,627,627,627,627,626,626,610,611,610,610,609,605,604,602,614,613,613,613,613,613,613,613,612,611,611,611,611,612,612,613,614,613,613,612,610,632,633,632,626,623,625,623,622,622,623,623,626,626,625,625,625,624,625,625,625,625,624,623,622,622,623,623,623,623,624,624,625,625,624,624,623,622,622,622,622,622,622,622,623,623,623,622,622,622,622,621,620,620,620,620,621,621,621,622,622,622,623,622,625,629,629,629,628,628,628,627,627,626,626,626,626,625,625,624,624,624,623,623,641,642,642,642,642,642,642,619,619,619,619,619,620,620,621,621,623,627,628,629,629,629,629,630,629,629,629,629,628,628,628,627,649,649,649,649,650,652,652,652,652,652,653,653,653,632,633,633,632,632,632,631,656,657,658,659,660,660,661,661,661,662,662,663,679,679,682,684,685,687,687,687,688,688,688,688,688,688,688,688,688,688,688,688,732,732,732,732,733,733,733,733,733,733,733,733,734,734,735,736,737,737,738,739,740,740,740,892,892,892,892,892,892,892,892,892,891,891,891,891,891,892,892,892,892,892,892,892,892,892,892,892,892,892,892,892,892,892,892,893,892,892,892,892,892,892,892,892,892,892,893,892,892,892,892,892,892,892,891,892,892,892,892,892,892,893,892,892,892,892,892,892,892,892,892,892,892,892,892,892,892,892,892,892,893,892,893,893,892,892,892,892,892,892,892,892,892,892,892,892,892,892,892,892,892,892,891,891,890,889,889,890,890,889,891,892,892,892,892,892,892,892,890,890,890,889,892,891,891,891,891,891,891,891,891,889,890,890,890,889,889,889,889,889,889,889,889,889,889,889,889,890,890,891,891,892,892,2047,2047,2047,2047,2047,2047,2047,2047,0,0,0,0,0,0,0,0,0,0,0,0,0,0,0,0,0,0,0,0,0,0,0,0,0,0,0,0,0,0,0,0,0,0,0,0,0,0,0,0,0,0,0,0,0,0,0,0,0,0,0,0,0,0,0,0,0,0,0,0,0,0,0,0,0,0,0,0,0,0,0,0,0,0,0,0,0,0,0,0,0,0,0,0,0,0,0,0,0,0,0,0,0,0,0,0,0,0,0,0,0,0,0,0,0,0,0,0,0,0,0,0,0,0,0,0,0,0,0,0,0,0,0,0,0,0,0,0,0,0,0,0,0,0,0,0,0,0,0,0,0,0,0,0,0,0,0,0,0,0,0,0,0,0,0,0,0,0,0,0,0,0,0,0,0,0,0,0,0,0,0,0,0,0,0,0,0,0,0,0,0,0,0,0,0,0,0,0,0,0,0,0,0,0,0,0,0,0,0,0,0,0,0,0,0,0,0,0,0,0,0,0,0,0,0,0,0,0,0,0,0,0,0,0,0,0,0,0,0,0,0,0,0,0,0,0,0,0,0,0,0,0,0,0,0,0,0,0,0,0,0,0,0,0,0,0,0,0,0,0,0,0,0,0,0,0,0,0,0,0,0,0,0,0,0,0,0,0,0,0,0,0,0,0,0,0,0,0,0,0,0,0,0,0,0,0,0,0,0,0,0,0,0,0,0,0,0,0,0,0,0,0,0,0,0,0,0,0,0,0,0,0,0,0,0,0,0,0,0,0,0,0,0,0,0,0,0,0,0,0,0,0,0,0,0,0,0,0,0,0,0,0,0,0,0,0,0,0,0,0,0,0,0,0,0,0,0,0,0,0,0,0,0,0,0,0,0,0,0,0,0,0,0,0,0,0,0,0,0,0,0,0,0,0,0,0,0,0,0,0,0,0,0,0,0,0,0,0,0,0,0,0,0,0,0,0,0,0,0,0,0,0,0,0,0,0,0,0,0,0,0,0,0,0,0,0,0,0,0,0,0,0,0,0,0,0,0,0,0,0,0,0,0,0,0,0,0,0,0,0,0,0,0,0,0,0,0,0,0,0,0,0,0,0,0,0,0,0,0,0,0,0,0,0,0,0,0,0,0,0,0,0,0,0,0,0,0,0,0,0,0,0,0,0,0,0,0,0,0,0,0,0,0,0,0,0,0,0,0,0,0,0,0,0,0,0,0,0,0,0,0,0,0,0,0,0,0,0,0,0,0,0,0,0,0,0,0,0,0,0
